# 3D point list with one line of data per point:
#   POINT3D_ID, X, Y, Z, R, G, B, ERROR, TRACK[] as (IMAGE_ID, POINT2D_IDX)
# Number of points: 360, mean track length: 7.1723296414492212
3007 2.2638505449678066 2.4106091332713335 3.1645766253797492 104 95 86 0.58976402046123177 2 433 55 127
3596 2.60185213407336 -1.5166333201575046 3.7052747617101138 75 68 58 1.4153591905484064 20 146 25 313 27 299 28 410 29 411 30 488 36 514 31 581 33 573 37 633 35 634
3010 3.0973558110316404 1.3033830216321773 3.7020108250213597 204 203 198 1.6680385817687153 54 57 55 166
3155 2.3232472941836626 -0.13634926246072718 3.2828336702269065 169 156 140 2.0259683374690449 22 617 23 604 17 414 21 276 25 389 42 438 44 591 45 572
5712 0.95804337873059753 1.4390017101466022 4.47547404305912 80 60 45 2.5984252443764357 42 241 43 149 45 291
3011 2.0188409945417711 -1.7380216635972074 3.9846320679988163 3 0 0 0.48834307840384655 54 171 56 176 55 176 52 166
3012 2.5855298940091482 -0.67943949139933457 3.2950405618735505 181 169 153 0.90600300443718373 11 235 22 227 23 217 24 316 20 300 18 261 17 183 19 237 46 315
3015 2.9577873019491401 2.8228357995350333 3.3462392097939246 238 234 231 0.4593470138185668 54 201 55 247 52 268 53 260
3365 2.3415252237519413 -0.53252433121574894 3.5751077611656927 208 206 193 1.4534114762877639 22 548 18 267 17 329
3668 1.5328211064669726 -0.99938880722349133 3.9608841061987565 0 0 0 0.78891121963609001 18 200 23 591
3017 1.2063980400558822 1.7136657186120101 1.1662123994619999 189 175 162 0.051685683749413673 54 184 55 263
3678 3.3127081988660567 -0.44668188258646951 3.4908602564122191 220 217 213 0.373577225669879 18 259 17 340 19 304
5215 1.4617854292193537 0.45476910484805039 2.8854906743093549 103 89 76 0.46728218158652052 32 308 38 446 41 468
3022 3.0477977500311715 2.7836862160111751 3.4542883424757207 1 1 1 1.6621114160016019 54 147 55 290 52 267 53 230 51 250
4396 1.2504666770564483 0.71245810845332058 3.0364209759094978 99 82 66 0.89643012244049614 30 39 36 43 31 39 33 79 34 89 35 95 37 139 32 104 39 226 38 222 40 337 41 410 42 386 43 613
3023 0.59370912377130214 1.1508436828710353 1.2429563346831003 189 176 159 0.66543164773557706 54 631 55 300 52 286
3676 2.1281539247490828 -0.59418271550119661 3.6798474581569183 175 165 153 1.7968209331343197 18 204 17 309 19 296
3027 2.1053964841683599 0.056631135009761101 3.251001689440538 163 152 134 0.47995967003357987 54 281 57 352 55 326 52 305 53 197
3031 0.77285019759581086 1.0209499735790892 0.7992668715333151 145 129 106 1.4239657130122101 57 593 55 412 52 149 56 279 53 198 51 170
3381 2.1513011163780775 -0.67740686152352347 3.6849903942308559 204 200 189 1.4344338061938895 23 312 24 422 20 391
3748 2.0288852236688109 0.26363293439846253 3.4151628955518416 166 154 130 2.7538948942425594 20 441 19 272 25 295
3033 2.5846179684671564 1.0112427175376577 3.0482425427455784 229 226 214 1.2049946991287697 7 1211 54 373 55 429 52 428 51 460
3758 1.778735278888973 -1.4355091743994068 3.9584274389883567 113 98 85 1.6453380717098427 17 395 19 316 21 311 26 221 25 221 27 186 28 129 29 250 30 240 36 253 31 273 33 420 34 349 35 373 37 549 32 552 39 640 38 653 40 604 41 622 42 663 44 698
4415 2.3830119977701179 -2.3868606473685716 3.7020926101850011 1 1 0 0.96072033555306902 30 224 36 142 31 262 33 213 34 256 35 274 37 275 32 265
3038 2.3907092147008346 2.5376368221876136 3.1205101399101629 0 1 0 1.2127489152358017 5 398 55 457 4 272 7 493
3039 2.1666873929086199 0.10133088135033598 3.2240566446042691 178 171 153 0.35448680217383516 54 488 55 491 52 493 53 410
3389 2.0001391561335637 0.24939146078385455 3.6489994571958744 78 62 46 2.0099644130385244 20 354 18 303 19 147 17 154
3756 2.0019116717343031 -1.1444587687720749 3.6941676402127173 200 192 179 1.9237466023854051 20 287 19 306 26 226 38 588 39 607 41 554
3041 0.48217500787822171 1.2092375502136052 1.4146189919320811 114 91 75 0.44201717530149093 55 505 52 425 53 274
3702 3.4774512333467738 0.88521374833126976 3.5593134977094341 1 1 1 2.0064181887539769 18 36 19 50
3042 2.2892936869069733 1.1836204625427342 3.115235713347472 92 80 64 0.28691011967447022 54 625 55 514 52 471 53 341 51 351
3045 2.7927565791358848 2.5460704978853395 3.2553295964666384 189 187 175 1.7131651267432688 8 1182 54 524 55 525 53 484 52 453
3047 3.1286170151627584 1.1563428579559802 3.8813566919117264 195 191 182 0.40182040884641035 3 700 54 316 55 543
3700 1.7125635228745844 -0.97190425475486719 4.0862671290116843 54 40 29 1.8395520974345052 17 28 19 36 21 38
3048 1.8122874286779744 -1.4853855849215933 4.2836452812048096 0 0 0 1.2364496338748596 11 62 22 37
3710 1.7116392200939141 -1.3813245586075238 3.9286554535878873 52 33 26 0.95275002797845487 17 67 19 91 43 700 45 660
3050 2.199522540418692 0.23861714471438819 3.312792814073819 175 164 144 0.38566292264867708 56 693 57 745 55 577 52 536 53 554
3195 1.0845955406597552 1.56913460130584 0.46061193820716323 0 0 0 1.2995625805168407 54 624 55 440
3053 2.3929967318800176 1.0546515196616004 3.0962274297583741 223 211 197 0.52961952076606233 54 510 55 584 52 432 53 471 51 462
5247 3.457893358697703 0.87271047512096123 7.5080607077545336 8 8 6 1.5712379577064528 37 559 38 674 40 730 41 674
3054 2.7017732407451311 2.6712814867817096 3.2622853213361984 176 162 151 0.37569295886905529 54 613 55 599 53 489 52 479 51 476
3057 2.1914846079792381 0.3538268866894958 3.4380672855232119 193 180 167 0.25575087783340894 54 653 55 649 52 548 53 635
3139 2.2875897076136722 -0.78425426531853504 3.6228546207218844 198 190 178 0.63976738364345342 22 593 23 524 24 429 20 395
3059 2.2729004479807737 -1.6190052884325734 3.6008663303593478 166 146 122 1.246312157721027 6 1284 13 843 54 692 1 1155 8 1370 55 665 3 1337
5754 1.0752252336088728 0.41885280021152199 4.6785745394418372 74 47 32 1.1741623872884417 43 392 44 611
3061 0.62900926710402472 0.98719812597725654 1.1316033368585294 0 0 0 1.5439901753835152 13 675 57 782
3063 1.756148248820796 -0.6066519523838797 3.5674228539932615 112 96 73 1.697747642298761 16 1020 55 719 52 665 53 630
3652 2.293948835583294 0.010050123120220742 3.4649073895675326 168 152 129 1.7533723660370266 18 98 17 124 21 119 26 128
3065 0.6938617664354797 1.3938418983632472 0.81819851589776449 115 107 96 1.2627468426210611 8 705 6 692 7 944 55 437 54 513 56 531 52 272 53 270 51 222 50 126
3066 2.3323704606278626 0.45259271294846581 3.3534312666353614 143 132 119 1.8884020530206242 56 598 57 670 54 495 15 503 14 463 11 422 55 608 23 395 22 246 10 457
3068 3.1729554364785133 -0.73721366664734445 3.5436292819329624 83 77 70 1.5405930998625552 14 116 54 224 58 234 59 175 55 196 23 56 52 183 53 128 24 122 20 119 51 179 18 119 50 186
3069 0.94182618189807898 2.5286724713852902 1.7909257840019062 215 202 186 2.1281530038028564 57 30 55 98 58 45 59 36
3070 3.2739487214040537 -0.35158099450314217 3.5538167893578603 165 162 153 1.2400338023182749 15 368 55 399 53 394 51 405 50 338
3071 1.9705397335815951 0.10874277168910557 3.5510212045929537 77 65 49 0.43294821518234944 11 6 22 8 23 7
3072 1.1931741193150074 -0.64971025949186367 2.481638970569513 46 37 33 0.63390343323179521 22 15 23 12
3077 2.3134325502676996 -0.90839776739929401 3.7323339054322235 160 152 142 0.90581137847366211 23 35 24 21
3081 3.1401107043325642 -0.1516009675492066 3.3866181183057189 170 153 137 2.08082048451553 22 57 23 105 24 206 50 307
4024 1.8363442917019737 0.43236473081270399 3.5337014761203673 225 212 196 1.095353647748776 25 105 27 124 28 122 34 220 35 218
3082 1.7950432804843168 -0.45859115649775667 3.6010120681939779 73 61 47 2.2026105457424201 22 123 23 106 24 88 20 66 18 38 47 178 49 133 48 203
4028 2.0076757964367467 -1.5639422558994767 4.2493778571362526 89 67 46 1.8359867540975461 29 151 30 239 36 252 28 130 40 643 41 551 42 620
3087 3.3918317679435668 -0.093231721549403679 3.4881266985558161 0 1 0 0.30880469826696572 22 214 23 202 24 208
3088 2.7462049163727906 -0.36667602148083062 3.4075947764215289 137 119 103 1.2278675768189062 22 216 23 207 24 210 51 400 53 304 50 417
4483 1.9041278874760517 -1.6895626787650579 4.1306855464920549 116 91 72 1.3917944110791396 30 532 36 599 31 606 33 603 34 624 35 690 39 675
3089 2.2331515689305479 -0.68703710324279854 3.8266952237495402 176 170 158 2.5228583619567546 22 228 23 219 24 128 20 58
3093 2.6843439819538037 -1.5937020204312282 3.7118314593025152 112 104 91 1.6349450123482012 22 254 23 258 24 279 18 178 17 205
3972 1.9675359971772337 0.3942107627920573 3.6465517409842323 164 140 116 1.8090147132598062 26 260 25 264 27 282 28 281 29 211 30 339 36 449 31 542 36 289 33 554
3096 2.3636213741450489 -2.0619959812093991 3.4930691045529465 210 200 188 0.4217574156330488 22 277 23 268 20 250 18 222
3097 2.88417389691493 -1.7332976547841077 3.8090599470704922 190 177 160 0.73854119758875059 11 357 22 284 23 273 24 273 20 253 18 221 17 290
3976 2.2609245754840601 0.59580819658845974 3.2985619590054944 191 174 152 0.45549848479133315 26 197 25 268 27 287 28 318 29 336
3098 2.9258107643023066 -1.6812622835371753 3.7601338329538723 199 186 177 0.29945523992308476 11 360 22 288 23 275 24 275 20 254 18 228 17 232 19 286
3101 2.7657033763418477 -1.4726321128251167 3.4938123678828918 136 124 110 1.9877422811635144 22 297 23 287 24 284 18 427 20 452 19 396 21 380
3980 2.3235780471414866 -0.71485996941533292 3.4698902006914349 226 209 193 0.80597167671238101 21 234 25 322 29 388 30 448 36 530 31 533 33 537 34 538 35 586 37 570 32 584 39 606 38 592 40 617 41 557 42 574 43 554 44 440 45 319
3103 1.7457716320445242 -1.2329255500632188 3.8427217196149943 184 168 153 0.84510731998527056 22 387 23 299 24 300 20 282 18 248 17 249 19 226 26 181
3104 2.345860048162093 -1.014105347876519 3.6959289282287182 205 197 184 0.50828026145849836 22 309 23 304
3105 2.1794111269742213 -0.93920963108888034 3.6135337199796247 188 178 168 2.5920820964384688 22 129 23 305 20 295
3920 2.1378074398138325 -0.24388765993471495 3.5987773471722981 213 201 187 0.2937766725822496 26 12 25 12
3114 1.8805471487912255 0.18370826940377716 3.7084646962328796 106 89 73 2.7222071088860855 22 430 23 350 24 191 18 227 17 164
3119 2.0088185485140477 0.061374585374381452 3.6178755844636252 115 101 88 1.3930609873408026 23 382 24 395 20 229 18 296 19 275 21 267 30 185 36 273 31 290 11 606
5842 1.6147220450706605 0.072600429608257439 4.1174206073404456 0 0 0 1.0227996947153577 32 484 40 378
3120 1.0202466603099469 0.46344958175480039 4.4614415201536168 45 37 29 1.5092271654729281 11 674 22 567 23 399 24 370 51 426
3121 2.1815428826154446 0.36618507414118523 3.4258196876198466 175 162 146 0.31559673941042438 22 569 23 400 24 378
4000 1.9807638716338529 0.36315638040558945 3.7421941228652376 142 120 99 0.47356847212985115 26 275 25 345 27 392
3130 3.2494296549365003 -0.59412805158704796 3.5103342705413154 181 174 158 0.81214636478880797 22 469 23 446 24 430 20 397 51 563 45 635
4533 1.6940009319852478 0.59053782347928152 3.2103306323078882 131 109 86 1.5763816631056695 36 129 31 147 33 151 34 131 35 133 32 98 39 136 38 149
5849 2.349352966965903 -0.6829640188469025 3.4926567319088173 230 218 201 0.21629939034309958 43 366 44 346 45 321 47 365 46 344
5038 1.7998147958206356 -1.1735767733371969 4.6573509220322435 0 0 0 1.3776224268617987 17 106 19 94 21 107 26 101 25 109 32 280 35 239 37 165 38 175 40 182 41 287
3135 2.6638741509244723 -1.5643962746718314 3.7620061955393744 117 113 102 1.275506694480812 22 524 23 504 24 473 18 441
3136 1.7231461844103344 -1.3606187858209666 3.9196508726774759 75 63 51 2.3250423461337828 11 706 26 58 27 52 25 98 28 52 29 86 30 93 36 103 31 109 33 157 35 163 40 348 41 531 43 538 44 565 45 657 49 501
3137 2.0938539881064231 -1.2827004326308158 3.791926564093977 212 203 188 0.47504717211167674 22 531 23 512 24 452 51 504 50 402 49 406
4080 2.384444753376918 -2.3602191016016256 3.7343210115332357 119 109 100 1.1775824801222958 17 374 25 362 27 394 29 478 28 403 30 484 36 534 31 521 33 527 34 607 35 630
3141 1.5414031044859575 -0.57323914457174796 4.1573591455609575 148 132 116 0.521715233453521 22 547 23 528 24 417 20 431 18 381 17 408 19 391
4084 2.7036333096871568 -1.5350162562550005 3.4991794819860638 198 182 167 0.9606265434287784 25 342 29 511 30 508
3145 1.3607159955954564 0.16746542705351572 4.306944867991966 0 0 0 0.12272475269452014 11 485 22 432
3146 1.8161922893462012 -0.10402448812367203 3.6504851207467852 152 143 126 1.97149518867873 22 561 23 565 24 551 18 417 19 429
3149 2.2898129176365845 0.35687281884701166 3.3388289916903102 139 123 107 1.4527304271413657 11 698 23 575 24 520 20 346 18 424
4092 3.4982021389023035 0.49446903290069411 7.2929145210073969 40 40 40 1.310209799494606 25 437 26 395 27 428 28 377 29 450 30 395 36 368 36 579 31 381 33 466 34 468 34 623 35 512 35 682 37 689 32 687 39 720 38 695 40 742
3151 3.181163053245891 1.0149119882665627 3.7017657502699652 95 85 75 1.14489731343614 22 640 23 584 24 547 51 568 53 606
3152 2.9110047154991534 -1.566672805479097 3.6697231063594891 138 126 111 0.45517452273263354 22 604 23 586 24 533 20 475 18 440 17 440 19 387 21 376
3873 2.3013785132367426 -1.9571517821844449 3.9970184596347758 97 77 60 1.5139933953549685 21 200 26 203 25 128 29 80 30 89 41 100 42 185 43 191 44 195 45 234 46 302
4547 1.0379631805934824 0.48902970296768267 4.4797517382821468 62 45 35 0.96450516993784796 36 321 31 237 33 356 34 376 35 401 37 403 32 395 38 551 40 508 41 491 42 492 43 500 44 612 45 517 46 593 47 478 48 491
3157 2.2398941945354967 -1.6766151522439321 3.5542076345806763 151 133 112 0.69519197665778809 14 699 11 703 23 571 15 632 22 603 24 532 20 449 18 394 17 377 19 356
4036 3.6080061251842444 0.30358615767167241 6.7394349845235313 112 104 93 0.91680967242905809 25 170 27 179 28 187 29 272 30 270 36 284 31 298 33 297 34 316 35 333 37 349 32 512
3168 3.7318913576576125 2.0401866800959336 5.1320107660686469 220 221 216 0.45467456328908462 58 58 52 68
3169 2.7342402845143683 -0.46441193989708146 3.3152971870009083 178 169 154 2.215431967312361 23 18 24 16 19 168
3984 2.4920239913318309 -1.292741785131919 3.5655081511306563 232 220 206 0.74804539904430234 21 312 26 320 25 376 27 412 28 458 29 484 36 518 30 474 31 584 33 535 34 583 35 638 37 576 32 578 39 604 38 586 40 678 41 623 42 622 43 646 44 663 45 540 46 566 47 571 48 507
3173 0.44613038068147109 0.97749305357411431 1.412069986530653 0 0 0 1.9709459028730012 57 15 58 22 53 47 12 20
3988 3.3153021065141317 0.37400541636401941 6.97635894236406 33 32 30 0.6990729909435206 26 300 25 390 27 426
3175 0.84607377779457871 1.7310609820523202 0.74142304643954959 146 127 113 1.8157229184776504 1 139 55 138 50 66 51 69
3177 1.7868172082923535 2.7570217973551574 3.4171709170680606 0 0 0 0.70068000315123435 12 110 55 100
3992 2.3013427237299928 0.44729765095517732 3.3315341957585569 131 116 97 0.43266523075675933 26 388 25 410 27 443 28 470 29 466 30 475
3178 3.1082517108146672 -0.33363410045262043 3.3498386085715568 239 236 227 1.8960551820092033 55 116 52 114 24 418 20 462
3181 0.52778478574816856 0.83237525231726184 1.6911301804137819 205 189 173 1.1501998603071579 55 156 52 145 54 242 53 145 51 176 50 146
3996 3.3422766737479055 0.66319584037126122 7.157876105135359 41 28 22 0.8244796638893811 26 417 25 446 37 680
3183 1.5518926696648667 0.24454055857672838 3.1196197987325371 195 186 172 0.41706588780322745 57 136 52 150
3185 0.99688140186374696 0.71873271620680412 1.103657990598691 191 179 165 1.0074610590033444 55 163 52 155 53 87
4064 1.8200137152843994 -0.18074659950674282 3.6707082619650397 185 169 154 0.87955032906559816 25 253 27 340 28 336 29 432 30 504
3189 0.82473630230370421 1.1790065543248751 0.69245673783472694 159 143 120 0.59209806760092387 55 302 52 209 53 205 51 180 50 129 49 168
4068 2.2570486092466613 -0.50918655232585719 3.5009001021270398 198 191 175 0.80753057442892917 25 319 27 353 29 425 30 502 31 567 33 516 34 543 35 592
3194 0.92375206372353225 1.5606396886608696 0.66576551820510088 0 0 0 0.51480588913960112 2 911 8 1171 3 994 6 1218 7 1219 59 700
3197 1.9433871401092162 -0.078053794910175819 4.039333623879747 163 150 131 0.86169257281887779 55 324 52 303 53 199
4076 1.7972563494162261 0.39725937664886096 3.5643281818647106 171 156 137 1.3892446690477158 25 356 27 383 28 391 36 454 31 460 33 449 34 452 35 495 37 575 32 489 39 512 38 621 45 505 44 638
3203 1.9502314066966795 -0.23111071720111531 3.7941021974104556 179 164 143 0.33519449496464127 55 402 52 406 53 299
3204 3.1779018290678067 -0.054873793239896419 3.6037722770001475 147 134 117 0.85074899293724293 55 406 52 410 9 473 53 411 51 230
3861 1.9128347792309082 0.33531126706126213 3.6605387346856619 73 55 35 2.0662407123555928 21 112 26 150 25 144 27 160 28 278 29 208 30 171 39 235 38 324 40 331 41 321 42 396 36 230
3205 1.9927221434403064 0.077682091032400966 3.5606850529492893 162 151 133 0.43972853135389728 55 572 52 411 53 294
3208 2.514749527688227 1.9947201795554834 3.3942330995276122 72 58 47 0.56636816104220833 55 555 52 446 53 275
3865 2.4281661131272849 0.21326108956078355 6.0103315854389061 119 96 88 1.4740555571320537 21 279 26 162 25 160 27 174 28 180 29 203 30 172 36 190 31 310 33 371
3210 3.153817383493652 -0.9563568679781761 3.4417628605353219 196 193 186 1.5061693597998291 1 268 16 283 53 576 52 506 51 551 50 455
3212 2.3036433482574514 -0.65095450321707371 3.6008180799439149 217 215 203 0.78684027641484788 54 648 52 523 53 536 51 360
3869 3.0630573131844763 0.062482695297184213 6.7164281979283569 68 70 65 0.94828515270839253 25 171 27 127 28 92 29 96 30 107 36 116 31 123 33 199
4895 1.5767683522363947 0.2381252873565658 3.918923933466973 111 94 78 0.54607025534044396 35 318 37 321 32 313 39 452 38 437 40 364 42 397 43 402 44 377 45 342
3214 3.4395880849571236 2.9289427720920238 6.6319782683650939 126 113 98 0.10207875752334848 5 1132 52 565
3216 3.1488414998945498 2.8785170908330406 6.7939169677434332 56 51 46 0.23774566104711531 55 610 52 579
3937 1.5801611718633075 -0.045146879747720296 4.0760976779137827 39 36 31 1.3119498303699506 25 74 27 68 30 109 33 125 42 220 43 244
3219 2.0469577762594819 -0.12675350104916483 3.6326944964658967 190 178 164 0.30198307253247086 55 651 52 611 53 589
4378 3.377319644579369 0.28244813292598503 7.1087405628658571 29 29 29 0.42475479135759131 29 499 30 536 36 598 31 616 33 596 34 622 35 681 37 688 32 706 39 748 38 736 40 751
3224 2.0829595194509567 -0.23634322857544823 3.5727306262578753 204 197 186 0.11499100972912084 60 1015 52 666 53 665
3945 2.6527780297593502 -0.4058533953482672 3.2541328426403795 0 0 2 2.5134208390498021 21 91 25 123 27 99
3227 2.1109139181252945 -1.577057478042903 3.916703727621238 123 109 96 1.714332989583069 56 754 52 671 4 1017 53 654
3228 2.2994353301374493 1.139573027611938 3.1279105344373535 153 141 125 0.47523221242819769 55 708 52 678 53 640 51 578
3949 2.3454491696507307 0.58920916496875619 3.192323649423138 161 140 119 1.0042825225965413 26 144 25 140 28 279
3230 2.5502831704863516 1.0058595434536843 3.2123202338313779 228 224 215 0.90080454403701238 55 715 52 686 53 638 51 617
3232 2.3085529150476569 -0.65944669845544512 3.5189956140844183 204 195 184 1.8401117804397971 54 670 55 656 52 592 57 734 56 702 15 642 14 668 11 584 55 660 53 581 51 546
3889 1.7819516201934396 0.23376302591284565 4.2247258170090953 74 61 55 0.32493643985380055 21 183 26 279
3233 2.1135284384514175 0.7277906734131282 3.2459049747089876 165 149 134 0.8897731095458612 4 705 1 691 16 759 52 422 15 434 11 258 53 422
4048 6.4989300933205785 1.4105965545805945 5.2529680853514664 112 96 81 1.4429798086867263 21 286 27 251
3235 2.7638347452015752 -0.47537212094097386 3.5429426140463822 235 229 217 0.91596934202910796 2 1033 7 1104 8 1283 6 1097 52 526 10 418 15 603 55 393 53 540
4400 1.3749121982645425 0.51074396182605986 2.878233353162106 132 109 91 1.4723315393901404 30 84 36 74 31 143 33 131 34 127 35 128 37 125 32 147 40 327 41 419
3237 1.6657888282224513 2.0593564207746251 2.5616834370059833 246 245 241 2.4406119445442074 16 5 52 3 53 4
4052 1.9809345172465611 0.32761866687654234 3.6233986814738213 147 119 97 1.3276497293588723 25 262 27 279 29 341 28 271 30 342 36 445
3244 0.47362994929041607 1.3059269496608454 1.5487170225944813 0 0 0 1.3299233506639925 52 19 55 709
3901 1.8517751664558784 -1.6316452740636804 4.1403748573412358 73 58 42 1.9602412965693543 18 444 26 354 25 400 27 393
4927 3.0820938628160772 0.22345990769099677 6.1982141268196802 113 99 87 2.5914353319390022 27 343 37 676
3246 0.81549047587038292 1.3439672655104704 0.70954484291509479 132 109 89 0.52878519553155146 52 29 55 39 53 20 51 12
3248 0.60719830009472475 0.81150820663561474 1.612138089902418 0 0 0 1.6964493620946159 52 73 53 36 51 34
3841 1.4472045519869781 -0.39096762388661227 4.1808736376930762 28 15 7 1.4554937014309757 26 64 27 59 28 59 42 135 43 255 44 222 45 258 46 350 47 376 48 339
3252 2.1995407303447405 -0.4780479522346196 3.4237866731310032 184 182 169 1.4128200554989021 11 23 52 41 53 45 51 57
3845 2.2188545644361497 -1.9409124178398633 3.8741209989981322 75 49 36 0.87776739538755233 19 197 26 85 25 88 27 84 28 76 29 79 30 88 36 100 31 104 33 113 34 104 35 102 37 97 32 166 39 182 38 189 40 175 41 216 42 246 43 293 44 327 45 303 46 407 47 552 48 536
3256 2.5552477478416558 0.11178116134460805 3.2392604331675878 241 239 227 1.371113838028847 23 54 52 71 55 83 53 70 51 60
3849 2.1097626388149706 -0.67438591878199827 5.1792026319128581 2 0 1 0.32993301737457809 18 454 26 103
3260 2.1918621129510085 2.2401917846683279 2.6689648419485312 0 0 0 2.3643485022722937 12 457 59 389
3262 0.66078925640641917 1.4906775116706841 1.0429031800718582 194 182 170 0.36561020856938437 52 128 51 47
3268 2.568947620556151 -2.1130470686266918 3.5814249183489264 242 238 235 1.3903715888342787 52 86 53 162 51 255 50 184
3925 2.6689454300305209 -1.2461242297563271 3.4138424621907273 237 235 223 0.99719090302376845 27 21 28 35 29 39 30 59 36 89 31 96 33 93
3269 3.963227656056826 1.9269804826493246 5.1893042373108456 3 3 3 0.1779580340898137 52 38 53 171
3274 2.7237750848301907 0.12386860687864035 3.5999988687999225 142 126 111 0.68360281356477448 52 202 55 159 53 201 51 213
3283 2.2465507460478671 -0.88940673460606201 3.7050294225406968 189 185 174 0.13542512848377242 52 323 53 314 51 369
3284 2.2148161553542276 -1.8689795552617827 3.8416285598704438 112 89 70 1.8938686070188182 14 690 52 352 53 326 51 261
4005 2.292912301219415 -2.0911840483505242 3.9773972745259312 99 72 53 1.818227180966937 25 32 27 19 28 27 29 14 31 33 33 34
5675 0.87815642987553444 0.78892763536653188 1.0823013308056548 233 224 213 1.2870984610821883 43 48 44 70
3285 1.1454532700862821 1.9718882456000144 1.0212721032866898 182 179 170 1.0619753459268293 52 233 53 329
4442 1.2525679816652964 0.69649679490083216 4.0801890939572614 91 78 70 0.71230586395552753 30 304 36 326 31 240 33 320 34 374 35 400 37 402 39 424
5695 0.49207486273456535 1.1468034076609284 1.4567194851592418 163 147 132 0.25099046530203739 44 180 45 267 46 257 48 248
3289 1.8034900620643122 -1.2001584428904015 3.7856712735630111 213 206 190 0.85691373244280633 52 509 53 364 51 374 50 371
3294 0.96264285558703955 0.75614156505599139 1.0930709422198321 204 192 178 0.37498090028957043 52 306 53 395
3296 2.9580604682125915 0.92556163493067545 3.5665885459210163 232 226 214 1.9651942697237486 52 251 53 434
3953 1.438482733936943 0.10449396327918889 4.2024238223429728 72 60 48 1.6860965472237923 26 152 25 147 38 439
4464 3.4524946406602082 0.55427494935161692 7.093318957428286 48 35 27 0.43031920859674344 27 338 36 458 31 472 33 467 34 469 35 612 37 605 32 626 39 699
3300 3.1366381570143984 -1.0907999736090899 3.5903856756081276 235 231 219 1.5853641738590749 10 293 54 567 55 568 53 524 51 507 46 427
3957 2.1050153211572642 0.067037878178637572 3.2267429795137841 176 164 142 1.0582997605132309 26 125 25 159 27 172 28 183 29 269 30 262 36 340 31 259 33 389 34 426 35 300 37 298 32 291 39 317 38 305 40 319 41 307 42 301 43 319 44 249 45 260
3304 2.878922927419163 0.058444763669504234 3.3587050781703729 193 184 169 1.1529840577658759 23 421 53 551 51 529 50 418
3961 2.3180583043995906 -1.8859984679428268 3.458141532800914 220 210 198 0.32302511964079261 26 137 25 203 27 216 28 286 29 286 30 310 36 338 33 421 34 490 35 535 37 533 32 539 39 563 38 491 40 550
3308 2.7101766280096165 0.12544860206529906 3.3462674032327704 194 187 176 0.23905239441080967 52 546 55 574 53 591 51 541
3965 3.5624277312910584 0.48981765386531917 7.1414907612624869 169 160 153 0.83939783825922609 26 240 25 239 27 266 28 260 29 350 30 348 36 371 31 384 33 367 34 323 35 339 37 406 32 337 39 360 38 394
4991 1.1484283070341246 0.39090306823518467 2.025226464405709 144 122 108 1.0193403245867387 37 159 32 238 39 167 38 299 40 309 41 290 42 363 43 436
3310 2.8059335271221686 -1.4014041985403058 3.4444043774161686 174 162 146 1.1200751449101638 16 986 53 627 49 472 48 601
3312 2.2035444410716298 -1.8360927005462788 3.6286984412286301 141 119 95 1.2389238205814368 22 518 52 658 53 659 24 351 20 323 11 639 51 613 18 314 17 229 19 205 47 603 48 534 50 500 49 457
3905 2.417148772231827 -0.86466461867853894 3.453831075274683 145 131 115 1.2145462205644448 21 301 26 364 25 382 27 467 28 438 30 501 36 522 35 585 32 513 39 584 38 641 40 615 41 591 42 598 43 352 44 433 45 317
3315 2.762283582840277 0.9963814730625552 3.3226955886308396 229 227 214 1.1758455750137702 52 684 53 669 51 618 53 652
3316 1.9824698920040147 -1.5415425603285247 3.7351325509886988 94 87 71 2.8249798499764562 55 723 56 774 51 606 51 611
3909 3.4019720023367483 0.5725635544374521 7.2252562725619169 63 62 58 0.74344967416714669 21 360 26 396 25 404 27 447 28 447 31 543 30 537 34 597 35 663 37 655 32 667 39 700 38 689 40 664
3317 1.4931784444355642 -0.98410917905717343 4.2088934144916497 93 77 62 0.96187938985500054 4 315 5 296 52 680 3 407 53 673 51 628
3320 2.8918661235213179 1.007206158938323 3.3673531516599251 96 88 77 0.27800151496262476 52 616 53 678 56 609 57 751 54 628 50 545
3913 2.3212109710866504 -1.5311211617284175 3.6963497063345327 212 200 183 1.0373016294176209 18 401 26 411
3324 2.469221513806855 1.9674353458130727 2.8891286642015332 141 128 111 0.79583179746479393 55 520 51 253
3917 1.586266421326473 -1.0123648404280436 4.0193178446053208 49 36 26 0.72039167585167507 26 178 39 303 38 292 40 207
3326 2.3335747767747677 1.8919706452185969 2.857328753269766 117 104 85 1.0820246188904969 52 265 51 445
3328 1.7553328882802111 -1.595144788990567 4.0564356371705985 147 136 126 0.83719702815716546 54 546 55 551 56 647 57 606 58 658 52 586 53 499 11 295 23 288 24 285 20 266 51 495 18 233 17 223 19 186 45 439 46 412 47 470 50 396 48 418 49 376
3329 2.1155713364837685 0.37663192565009151 3.447263460028664 199 191 178 1.2628531274975501 8 168 60 130 3 133 2 142 6 170 7 172 5 94 4 109 1 122 16 113 12 101 13 97 10 74 56 103 9 61 52 75 53 76 54 78 55 59
3760 2.2822591062387318 -1.7482767572805371 4.0697232252003603 52 34 22 0.63097537367031076 17 234 19 326 21 254 26 267
3331 2.1752778195313978 -1.6951005408777244 3.7288927997937362 86 65 46 1.2606009635036681 24 8 20 10 18 9
3333 1.8861456981323679 -0.92266592965032868 3.6636678912560834 227 221 209 1.9011155543239762 23 10 24 13 20 5 18 13 17 12 45 69 44 87
3764 2.3085702352948791 -1.6385110018721907 3.6667126887104859 137 115 94 0.89665179142363272 17 378 19 359 26 348
3334 2.8014292921313144 -1.9379411975924292 4.0556089648864875 243 239 228 2.0332840338681337 9 50 24 19 10 40 15 61
3337 2.073551086882035 -0.02826409288816727 3.3123785073085545 103 86 70 1.4408688125913673 23 111 24 55 20 71 18 42 17 56 19 55 21 50 26 36 25 58 27 44 28 36 29 33 30 80 36 94 31 65 33 101 34 66 35 77 37 108 32 142 39 116 38 133 40 135 41 115 42 229 43 253 44 188 46 205
3768 3.0620483415292248 -0.29781301835800061 3.4024073048103181 176 169 151 0.42005780718945906 17 331 19 382 21 353 26 393
3338 2.4167677338120015 0.097664051226420925 3.2019433057830899 112 94 80 1.0597357024981087 22 72 23 68 24 57 20 72 18 141
3341 2.1180096701860234 -0.43426949120782504 3.6402161086460652 200 196 182 1.2033175353828944 22 117 23 103 24 86 20 63 18 84 17 78
3772 2.9240830454103883 -1.4920271521222368 3.557724873606344 134 121 104 0.43937896448634128 17 425 19 412 21 402
3343 3.1708270319088481 -0.29750177693456137 3.4874150691006514 232 232 224 1.5929059978883833 22 115 23 101 24 134
3344 1.4905904994386858 -0.58828315518089236 4.1447848941574374 174 152 129 0.77852998743583202 23 100 24 135 20 142 18 132
3349 1.9283248984131094 -0.48640209545960078 3.6240509912692382 120 102 88 1.4708245045592754 24 205 20 313 18 360 17 409 23 204
3716 2.7744595599326662 0.65659871317306995 3.3490658228289303 20 21 19 0.22969298608557887 17 158 19 116
3353 2.7796127826179329 -0.83061710095024344 3.4071131356077071 237 228 219 1.5101271825772615 23 93 24 227
3720 1.6953162789598457 -1.2767057374753012 4.1203993675965975 110 86 74 0.61407589050299316 18 165 19 135 21 105 26 99 25 101 27 94 28 86 29 89 30 97 36 106 31 156 33 230 34 172 35 208
3354 2.1509674158994931 -1.0607056350648123 3.7768349718139076 170 157 140 1.1148486872283891 23 230 24 228 20 289
4245 2.0674379240618932 -1.5383135803520536 4.3409956128048259 88 62 49 0.32790441434420003 28 300 29 305
4750 3.4643220798309429 0.29950461861972166 6.9250552711589082 94 93 89 0.47793033707628363 33 626 34 627 35 668 37 662 32 663
3359 1.8024061258334907 -1.5717413569241729 3.9908876639511641 148 138 126 0.59445022496923983 23 290 24 286 20 153 18 285 17 218 19 185 21 216 26 200 25 187 27 180 28 131 29 249 30 237 36 249 31 344 33 362 34 438 35 544 32 547
3360 1.740449887623323 -1.2925655400853491 3.8649251869763641 181 171 156 0.096110152759309522 23 295 24 295 20 278
5059 2.1628232984064568 -2.1252783813647182 3.6568375941168756 0 0 0 0.61798637385717414 27 18 28 26 34 98
3361 2.2611133377509431 -1.1882791337542162 3.6063802315700038 183 179 167 0.70392261222263419 23 265 24 298 20 408
3664 2.3122519630666618 -1.8617955600673866 4.1391212235940138 63 43 29 0.63358870038245108 18 315 17 231 19 207 21 203 26 207 25 206 27 221 28 289 29 290 30 314 31 486 33 448 34 494 32 571 39 674 38 701
3370 1.5796581985986502 -0.0045941617932819118 3.8024007044800401 73 64 55 0.99724796051065867 23 551 24 347 20 179
3375 3.0066702819109756 0.7618767609796141 3.5944526185217938 133 117 95 0.08960511504833657 23 245 24 382 20 436
6098 2.1029578864961613 -1.2085652222135284 3.7066831291378648 225 221 212 0.61692383270432494 45 431 47 573 48 399 49 316
3376 1.203046620324056 0.30389610041974374 4.3409153952420452 127 120 109 0.96392665851333559 23 473 24 385 20 344
4259 1.80143829653309 -0.28600386759226737 3.5998967785995863 214 200 183 1.4354826427388103 28 471 29 390 30 371
3377 3.129150856697986 0.75913392184831829 3.7253095775631309 183 170 151 0.56490830234091327 23 408 24 391 51 428 53 427
3386 2.2897720705274565 -1.177988649388225 3.5856003790549704 213 211 199 0.9941270536041904 23 462 24 449 20 406 17 245
3392 3.0749578455829334 -1.1298810875742538 3.4338965672139889 0 0 0 0.095352413063735486 9 308 15 352
3393 1.8238646637177256 -1.0664614792389557 3.7576774786194744 193 180 161 0.12962297558407254 23 518 24 480
3824 3.2095141444309303 -0.95673946246898089 3.4901292751941617 61 57 48 0.045955293746579695 19 406 21 385
3397 1.2597822803236562 0.021669188530524804 4.361005332411489 118 106 94 1.0294987822258288 24 509 20 358 18 376 17 333 19 265 21 198 26 209 25 263 27 310
3828 1.8844885909058464 -0.023303724661760585 3.6851390170302882 117 100 84 2.3151882434518649 17 59 21 59 26 69 19 54
3398 3.2327345241821219 0.54877483001745198 3.5957041834031505 187 172 149 0.36720953475534018 23 567 24 512 20 430 18 416
3401 2.0609500132272514 0.2747134936837155 3.4646669548469022 152 136 111 0.0060059572399029709 23 495 24 518
3832 2.3712346178718842 -0.0013668023595297572 3.2539062084564789 228 218 208 0.99845714484843007 28 9 29 11 30 12 36 16 31 14 33 15 34 13 35 17 37 15 32 16 39 15 38 15 40 16
3405 3.0743573650918155 0.14069637051465922 3.4317245220043815 169 151 133 1.9634759689894619 23 32 24 51
3836 1.9124878439426336 -1.1264253619391311 3.7062191676959193 236 232 221 1.0270595566967993 21 40 26 44 29 91 36 215 31 276 33 344 34 354 35 461 37 552 32 558 39 581 38 475 40 350
3407 1.7536002390879772 0.10198569118666602 3.4295712331536099 79 67 53 2.1708546740594299 22 426 24 383
3617 2.026673009923408 -2.2509216959344203 3.1643924083757251 0 0 0 0.34508936326781731 23 24 24 567
3409 1.7041636786357173 -1.0212648647037543 3.8803908904972531 69 55 44 1.4333410864144023 23 17 20 12 18 6
3413 3.2254218498532037 0.30074764594511338 3.5865255296322389 179 162 144 2.0800354570119075 11 50 20 42
3780 1.6795661213088595 -0.2056711375157691 4.1094305595555349 33 24 17 1.7443494640338155 17 16 19 28
3420 1.8299941308255827 -1.3047974876910589 3.8005248826966156 222 216 204 0.79155751646401151 23 144 24 149 20 96 17 69 18 79 19 92
3629 2.2995114378494339 -1.7188709351431954 3.5286240212058568 242 239 230 1.3868487889728265 26 51 25 50 27 38 28 44 29 55 30 71 36 86 31 80 33 74 34 105 35 103 37 98 32 130 39 102 38 119 40 121 41 99
4814 2.8552293490724705 0.44422212631358793 6.4773963792179545 104 81 69 0.87539971214485235 35 405 37 512 32 624
3423 2.0096550639497446 -1.3447692247838776 3.786900869344362 234 232 220 1.556111622203552 23 141 20 110 17 111 19 180 21 219 26 222 25 199 27 369 28 363 29 309 41 279
3424 2.9923558980737308 -0.93399622641448599 3.4326792084604625 163 151 137 1.8267835343280374 18 191 17 248 19 309 44 209
3425 2.6774269532115857 -0.94709096372399826 3.4692531623572975 180 169 159 0.82642789431172181 23 228 24 119 20 117 18 116
3728 1.7941797464459772 -1.1336288958979421 4.0187583175951422 76 57 42 1.854356810464346 17 189 19 174 44 203 45 188
3732 2.7248510534079897 -1.4788780013359208 3.5339569060400571 210 201 186 0.70999731323716886 17 201 19 190 21 211 26 328 25 339
3433 1.4364338576058779 -0.46657526252101222 4.1643551406860908 42 34 21 0.37572748972032516 24 203 20 191
3736 2.2564921313768975 -1.7796114514861368 4.1460379074192755 52 37 27 0.2981749349028866 17 233 19 209 21 253 26 266
3437 2.2909580913799146 -0.80562298815410704 3.5424795777492588 180 172 159 0.47660277544323887 24 313 20 205
3740 2.2062117533994452 -1.1110696495941215 3.5526300212639668 190 184 172 1.7235605449673883 17 192 19 225 43 346
3439 1.7033238074988666 -1.1847655946135895 4.3410654604507819 77 55 42 0.78271514835480471 24 446 20 216
3440 2.3978301703132341 0.19120519582656706 3.27790077423214 206 196 184 0.9301454798801565 23 351 24 251 20 231
4323 3.4492896253176055 0.92317532796183033 7.5539571867274455 1 1 0 1.0373495564992423 28 320 29 215 30 163 36 312 31 371 33 359 34 333 35 353 37 392 32 351 39 259 38 251 40 268
3441 2.8083680239484892 -1.6817619464227009 3.8189841491237182 196 185 167 1.0188682781761802 23 278 20 246 18 319
3808 2.3397213260029481 -2.3195804985200335 3.6971842114535876 130 120 108 1.4434235240095539 18 391 19 269 17 365 26 262 25 276 27 290 28 404 29 407 30 465 36 535 31 550 33 601 34 609 35 671 37 670
3447 2.2339503062090453 -1.973557401184904 3.9441329529176858 60 42 28 1.0901583627429594 23 496 20 322 18 313 17 227 47 553 48 495 49 431
3449 2.0584064887083873 -0.0082947700500254143 3.647901562625711 105 93 79 1.3774195156203286 23 548 20 362 17 305 19 277 21 269 36 398 33 525
3816 3.0109576945587992 -1.6156844365766849 3.6562837413487901 2 2 0 0.62778667042290637 19 328 21 336 26 346
3450 1.4717723958286792 -0.087189071977962176 4.1298097582369966 144 130 117 0.74142542908655196 24 399 20 363 18 295 17 284 19 260 21 251 26 254 25 301 27 330 28 325 29 349 36 381 41 423 42 424 44 487 45 452 46 473 47 408 48 367
4341 1.449630803843005 0.38838230042233562 4.1429324520878419 94 80 71 1.637922452606047 29 321 30 296 36 309 31 374 34 386 35 411 37 336 43 487
3453 1.9054123799006362 -0.40887129981007919 3.597090724341991 154 142 127 2.4280608705388809 24 335 20 374 17 372
3820 1.8069775732929816 -1.4546634904623195 3.9121780174805445 112 102 91 0.56900628499785721 19 373 21 362 26 402
4846 2.370025906316036 -0.26770553452887513 3.3143898086300121 161 157 148 1.8388733464726084 36 38 31 37 33 41 34 50 39 30 38 37 40 40
3455 1.5794324674981877 -0.74847579686423238 4.1402099565700485 149 136 119 0.46694377406700821 24 423 20 387 18 219 17 330 19 295
3456 1.8183177878603904 -0.27856571781079725 3.7316745096789012 178 163 147 1.2747064358250462 24 498 20 421
3601 1.7431340141191922 -1.1815540912779579 3.8226498094600614 169 156 139 0.37376997324214845 20 288 18 339
3458 1.8284484303837312 -1.6270907799239656 4.0606841158978897 123 105 83 0.38735557003889259 24 536 20 453 18 400 17 388 19 365 21 344 26 353 25 423 28 481
3459 2.842602609471335 -1.2560017048526937 5.6188577298651108 120 110 100 0.080896722537620591 24 23 20 454
4112 2.0806428572398019 0.19914181313015927 5.5134160495810507 97 79 65 1.487245628114191 27 105 28 62 29 72 30 130 36 134 31 145 33 152
3460 2.1198878772455259 -0.56191175174346508 3.6913158163939324 150 143 127 0.79318586684230608 24 458 20 463 18 382
3605 1.6037823259809509 -0.80306645582525704 4.1347539087175598 138 122 107 0.86309325820426852 20 419 18 352 17 335 19 298 21 292
3461 2.7307387946551245 -0.24053976544911781 3.3092747901538506 210 202 189 0.76051272234657996 23 535 20 468 18 430 17 422 19 419
3464 2.1679990403885405 -0.16302521390539368 3.5440882725995655 191 182 171 0.076527102170571223 24 545 20 477
3609 1.8240592166379428 -1.092446451417266 3.7485818562646456 156 143 126 0.31962416325122289 20 459 18 378 17 401 19 378
3468 2.2687257188345429 -2.3134048667768821 3.6626794819909914 103 95 82 2.2336963879996334 11 34 14 66 21 252 48 213 50 219
3613 2.0622246452419 -0.14629796468760775 3.6010033153137995 146 132 119 0.17231786451676023 20 425 18 414 17 415 19 350
3470 2.8858637058089514 -1.3788636729014909 3.4956069264341152 89 79 67 1.6184208274402407 24 241 20 268 11 195 22 155 23 263
3475 0.48404692146417 1.1624244277963445 1.1045560989410974 158 146 130 1.0005136488246062 55 63 51 7
3476 3.0881790966266713 2.4176888379235115 3.7685875575735013 240 239 237 2.3504277657765131 55 75 51 11
3685 2.961845458196422 -1.3846296561310016 3.4118795537625433 29 27 19 0.97121719053128275 17 387 21 342 26 400 25 425 27 477 28 516 29 523
3477 2.5153367414731056 -2.1793253230618364 3.8168142719296019 234 228 216 0.96307666552213733 22 7 53 9 51 13
4122 1.5674033230334419 0.44835464116989038 4.0900959001217636 109 95 86 1.8153535472048634 27 120 28 119 29 123 30 118 36 128 31 207 32 202 39 346 38 336
3480 3.0784824645371867 0.26905620845156342 3.7428279598856111 0 0 0 1.4650068945912398 10 16 13 14 9 16
3484 3.0386224613068427 0.046117865628745681 3.8872746447758844 122 109 92 1.7762914653367978 53 69 55 66 51 71
3693 1.7941932689035256 -0.095207002495730136 3.6709957183159201 202 190 176 0.56647057524677114 18 418 20 428 17 303 19 276 24 507
3493 1.1573059115759428 2.0017543551030141 0.43610323012383972 147 131 115 1.7094478202470915 55 110 51 144
3796 3.3606575672893166 -0.355702137207205 3.5230955150802878 240 236 227 3.0322046358823123 20 202 21 128
3504 2.1540256897761663 -1.5350986586917803 3.794539173330977 175 159 134 1.8691056772927415 23 135 24 106 17 95 18 100 19 85 21 84 26 55 25 103 27 90 36 418 31 343 35 370 37 546
3585 2.3372284842424524 -0.34198618431723965 3.4198442678999244 130 111 91 1.6146981316859117 17 221 19 161 21 162 26 169 25 175 27 184 28 245 29 258 30 249 36 263 31 283 33 273 34 286 35 454 37 378 32 452 39 390 38 371 40 360 41 355 42 434 43 446 44 454 45 570 46 535
3505 2.1220029012709976 -1.5024464649246985 3.8780452419134894 60 45 32 0.57837970929813143 11 131 50 286 49 254
3508 2.8686827784238926 -1.1874141149155089 3.3740410538559642 205 195 186 1.2304676296184087 20 275 18 330 17 396 24 233
3589 1.6354670165027794 -1.2245960493882633 4.0304485053031733 58 41 31 1.523618632430696 24 445 18 251 17 344 19 228 21 225 26 228 25 230 27 241 28 240 29 254 30 245 36 256 31 277 33 266 34 281 41 534 40 349 42 532 43 545 44 570 45 648
3509 1.7851175075814991 -0.9697235096928587 3.8817139328351544 92 74 60 1.849001680013308 20 33 51 277
4154 1.7590523388103223 0.49175218322311709 3.5780774298630869 169 148 125 1.0588970940107159 25 360 27 314 28 310 29 325 30 330 31 434 33 461 34 460 35 500 37 498 32 615 39 666 38 622 40 703 41 640 42 668 43 690
3512 2.809113251012143 0.78495106723549168 3.3542874702856746 231 225 217 1.0801480922607851 11 192 51 320
3593 1.9442870587143146 -0.32810575077116783 3.6468381511300643 158 142 128 0.75994119483068845 20 184 18 277
3516 2.3813105494818454 -0.50877471531111285 3.3726293035178627 166 153 137 0.10482027499101756 53 481 51 359
3597 2.0270487488622666 0.22109203919588305 3.6360059420058093 117 95 81 1.9319236339262424 20 356 18 302 17 368 19 344 21 323 25 296 27 377 29 480
3518 2.2056799402808767 -1.9416997869848531 3.6688736389719518 107 87 62 0.21968469386960732 52 601 53 510 51 391
3523 2.9191988782380918 2.5722759041603962 3.3269026893957938 216 213 204 0.60771601884958737 53 172 51 448
4176 2.113136775813063 -0.0091975957864810221 3.3225293339681219 181 164 144 0.62255206779756578 27 432 28 434 29 434 30 463 36 508 31 520 33 524
3525 2.8803130934433545 2.6736925441257187 3.2928696254054595 190 190 182 0.47857554614358483 53 488 51 475 50 478
3529 3.0574592583030613 -1.1040379334818933 3.4937131036783518 236 232 221 0.58615976569056116 52 513 53 521 51 506 49 416
5932 2.4124562742117837 -1.7879319492030643 3.565444018749083 244 243 238 1.5081964504567051 44 83 45 81 46 81 47 67
4703 1.3156619533184479 0.92087848966816455 3.7364360002490122 82 67 62 2.0720073571770206 34 192 35 194 40 257 41 381 42 330 33 171
3534 0.4879976366408722 0.85259353526078507 1.7109052105123275 89 77 63 0.51113389718989766 53 456 51 534 50 333
3539 2.8147543575771019 -1.4095145578475341 3.4168153606440987 179 171 155 0.84533916427067968 53 661 51 612 50 529
3540 2.4445129785344539 1.1035054100045152 2.8178393213561153 0 0 0 1.3154159519628377 52 682 53 623
3749 1.7910383387008337 -0.16490858084392226 3.6775200055742188 163 146 128 0.96053503186245204 17 302 18 301 19 278 21 270 26 375 25 396 27 441 28 484 43 455 44 597 45 577
5931 1.7924950721098702 -1.2370922184626381 3.99182227219254 52 34 20 1.2280532875850323 19 25 45 70 46 80 47 93
3541 2.2681235208674386 -1.6579977234234313 3.5160266961283035 197 186 168 0.27067552304371523 53 675 51 625 50 540
4186 3.6008980816080305 0.33228830040113488 6.7048013778759978 127 115 103 1.7532347994380171 27 490 28 501 29 515 35 655 37 650
3550 3.006204636838735 -1.0326587816778541 3.55644623201231 236 232 222 1.0128896199889081 20 4 45 36
3552 1.8917274741120058 0.026335915541559802 3.6862574559936538 117 101 85 1.4650026122402771 20 22 17 33 19 29
3697 1.61407532628784 -0.76521276857374887 3.6934488898326632 93 71 50 1.9716634860886724 17 3 19 2
4208 2.3693527896664075 -2.3099202110544472 3.5786152725285851 5 5 5 0.84260089169905972 30 85 36 161 31 175 33 163 34 264 35 275 37 276 32 266 39 284 38 273 40 284 41 266 42 391 43 363 45 300
3556 1.8458773173413692 0.18452347453572432 3.7255297334924848 129 112 96 1.8558262500614036 20 130 18 40 17 52 19 73 25 155 28 16 29 22
3701 2.5040293487295275 -1.0818902385892368 3.3892664793248657 226 216 206 0.86034995400211645 17 48 19 38
3557 2.2153023187839098 -1.8907963964058074 4.2386303096609623 0 1 0 1.6008206734106674 17 47 19 82 21 81 26 82 25 90 28 78 29 158 30 208 36 226 31 166 33 256
3705 1.5119319204395252 -0.51758328627666161 4.6833683578772174 66 46 31 0.030106191329826226 17 61 19 59
3564 1.5962830429050034 -0.43981940105181039 4.1193524922451719 163 152 140 0.8427761539304589 20 65 18 88 17 133 19 131 21 125 26 106 42 291 47 208
3709 1.8493628413626473 -1.5005302995354883 3.932989690698983 38 25 17 1.0754487541764555 17 66 19 89 21 86 26 57 25 96 27 92 28 82 29 199 30 200 36 219 31 159 33 263 34 279 35 288 37 367 39 380
4735 1.7037197982643653 0.43048160463116641 3.076934748390157 162 149 130 1.912642478725695 31 260 36 296 34 406 35 490 32 609
3566 2.0751260993991272 -1.7351325044177763 4.1254060165477764 7 6 2 0.83203779883392259 20 102 24 100 18 106 17 101 19 193 21 142 26 193 25 191
3568 3.2946870715527719 -0.53762778449002835 3.4925896415001936 223 221 209 1.1964040553107222 20 122 18 122 17 186 19 173
3572 1.4752605599697544 -0.42890429420260401 4.1329426620130043 171 159 143 1.2714912166196977 17 131 19 129 21 122 26 130 25 118 27 177 44 280 45 266 47 375 46 244 48 238
3653 3.36505566220927 0.52091225228275528 3.5672065032238183 229 222 211 2.6344003530688416 18 81 17 125 19 102
3573 1.8045887383728454 -0.2609565504631301 3.6592564743188505 140 122 100 0.88206448213427957 20 138 18 137 17 126 26 160 27 262 28 344 29 367
4218 2.0596706914328524 -1.7578707177993329 4.098528714909266 86 66 51 1.4980025972547839 27 87 28 137 29 157 36 225 34 274 35 285 37 364 32 543 39 637 38 673
3574 2.3342971730950959 0.036246060743104679 3.2113710443068584 235 231 219 1.1084857262871015 20 70 24 56 18 139 17 121 19 119
3576 2.3274247578358755 -2.3023556982326454 3.9869877940742864 0 2 1 0.92587914498705226 20 210 18 155 17 99 19 63
3657 2.9854606586130399 -1.5823232781074805 3.6463367577473869 191 178 160 1.018482976971526 20 259 23 281 17 206 19 210 21 204
3579 3.0044253818668816 -1.5204569603278983 3.5860333516420395 173 156 136 0.82505549645023857 20 264 18 180 17 237 19 213 21 207 26 268
3580 3.0817261474738591 -1.1747495182484329 3.48270187411141 238 230 217 1.2948245233697673 20 220 18 187 45 429 17 197
3661 2.4296961495188194 -1.1164712786576367 3.4922062645503895 228 220 206 1.6642728355525029 18 247 17 225 19 312 21 308 26 362 33 606 36 568 35 641 34 585 37 578 32 581 39 608
3582 2.3178999636088879 -0.92262191307909369 3.5697529249471245 0 0 0 2.2946390805971828 20 212 23 475
3584 2.7340675804684262 -0.35908809120956947 3.3787762999713027 167 159 140 1.2481462837853758 20 143 18 207 17 326 19 418
3594 1.569364834441348 -0.23379802169333624 4.0811098779882444 108 95 88 1.5478846062722833 20 223 18 280 17 280 19 279 21 272 26 290 45 583 47 417 46 466
3598 2.4701849647172383 -1.6713317656789668 3.5719630821181005 188 181 163 1.2832629867470102 20 258 18 320 17 438
4995 0.97984449198541601 1.293686489536136 4.3981708820799854 47 27 18 1.118385619451209 37 267 32 253 39 267 38 396 40 283 41 265 42 240
3600 1.8034771604891746 -1.3280220033910692 3.8345404222197819 198 187 168 0.31615950717127711 20 372 18 335 17 352 19 314 21 310
3602 3.2302124483941514 -0.68491299757254986 3.5224099716996817 177 163 150 0.22381098201665556 20 418 18 342
3607 1.7627576763673585 -0.67501908096864782 3.6652358776514231 74 60 49 0.928396430016731 20 384 18 357 17 325 19 291 21 287 36 537 30 452 31 547 33 538 35 589 37 581 38 594 40 582
3608 1.9857853948947823 -0.58348059409698128 3.6022596197729295 0 0 0 0.7729790149253577 22 219 51 519
5013 1.5764159791137196 0.81854930146881533 3.7233204502576731 109 88 74 1.2278810424153388 37 405 32 397 39 425 38 412 40 414 41 390
3610 3.167249771884848 -1.032228106770815 3.5029187630260838 199 193 179 0.57011533363287981 20 330 18 387 17 442
3615 1.3557406905868192 0.16350068075387283 4.2924594033269194 166 164 152 0.86840125106677368 20 434 18 420 17 370
3616 1.8396431793370307 0.25670861311469922 3.6991162225116669 152 140 124 0.16290175214881145 20 437 18 423
3626 1.5706435729576647 -0.21989928456262678 3.8549396694469875 50 40 31 1.6312172567440204 17 8 19 8 21 4 26 3 25 2 27 4 28 6 29 5 30 6 36 6
5027 2.4438668461344473 -0.040875081962972959 3.1211670421547124 1 2 0 0.73548418195443566 26 157 32 568 38 500
3632 2.4324343602613787 -2.0020489974590205 4.1536985636378541 0 2 1 1.3637116261301232 25 51 27 39 28 43 29 42 30 49 36 57 31 92 33 60 34 53 35 58 37 50 32 51 38 81 40 80 41 81 45 180
3633 2.4362151515757522 -1.228713396381385 3.5925539234909922 239 239 227 1.4586017274606387 18 27 20 23 44 112 45 101
3643 1.5240532002866363 -0.96663173972359362 4.0587818778887979 216 201 178 0.98271532997577249 18 76 17 76 44 117 45 105 46 114
