# 3D point list with one line of data per point:
#   POINT3D_ID, X, Y, Z, R, G, B, ERROR, TRACK[] as (IMAGE_ID, POINT2D_IDX)
# Number of points: 405, mean track length: 3.9204235770458618
2989 0.59314373474524906 0.21213587083876267 4.6238258493039446 110 164 190 2.2529066502438266 65 1163 68 577
17346 3.1607201801238185 2.6388773224510413 4.362625072301034 149 133 120 0.39634148682881104 5 2674 7 4115 4 2078 3 2227 2 3464
2271 0.74851032923585969 2.5789660648367141 3.3580659985707446 195 231 247 0.95071859872850994 70 804 71 840
3645 0.75249807187194373 0.61336864288942428 3.9225302573391665 156 183 200 2.0082287894746469 65 1700 63 186
8503 -7.7723154394274392 -8.0176024265587689 54.004901901201727 27 22 43 1.4637927124394605 58 635 40 441 56 577 60 536 41 698
2272 1.2711816671219971 2.8425185186232325 3.8090779593271074 156 176 185 0.8757094901330722 71 850 59 1471
2929 1.637587907648701 0.64095998354448647 4.6473937417472326 188 216 224 2.103641199922091 70 5680 69 2609 71 6290
2273 -1.8772458710680795 1.9266101230374253 5.1597700626772012 13 33 44 2.6582161693929995 70 2689 71 880
2283 0.9002662734182546 1.6473323301573493 4.5784686096545686 178 215 234 1.9702743964371785 67 2319 74 8288 71 1068 61 1484 74 3205
2284 -0.041129815667592225 1.9939558021023083 3.8538586288602872 44 98 137 0.68295737051130612 64 979 71 1083 65 4032
2941 -0.63084192986889498 2.3625393687207183 4.5061923630426906 162 203 221 2.171417835692933 69 11 68 13
2285 -0.93936414717781169 2.2953622656740125 4.5737398925444763 124 116 105 2.1822496114914323 74 3703 71 1097 59 554 69 2833
2286 -0.81621829701489246 2.484648685384891 4.4269190836708239 124 114 99 0.77192225543926152 70 1748 72 109
3452 1.0981012994887358 3.3989802742435913 3.6927968712337962 87 51 25 2.259277397706164 65 3963 57 2723 61 5503
2289 0.045037479672396671 2.681549463928055 3.6418008523579499 166 202 217 1.1534969934536163 66 1360 71 1116
3907 1.2800659340833855 3.3477655457800193 3.7205090424959395 118 86 61 2.6035910591003426 62 4198 61 5284
2290 0.059853972214645709 2.7482318445843088 3.8638579324223166 163 200 216 0.88200306758599978 70 1759 71 1117 69 644 68 646 66 1359 62 806 64 1041
18369 3.6841227847462528 2.3326209436214276 4.806640627339104 139 126 120 0.2826840864551467 7 4091 2 3406 6 2195
16982 4.4952979801044508 2.8540361032394097 3.3811964088194433 140 126 117 0.86215719016719672 5 1979 7 1383 4 1680 3 1723 2 763
2292 1.1612754794368241 2.828027521256737 3.7283637432562586 86 76 71 0.17190825789691144 70 703 71 1149
2295 1.566712610454523 2.6539456038432427 3.2021735908761384 80 65 60 0.70292980050458698 74 1938 71 1174
2297 0.70837086693497542 3.2428313565427525 4.2595320585063172 102 85 69 0.70253551084147003 70 1039 71 1185 68 685
3406 -0.4139347271668391 2.9196894118306682 3.9957156975867258 93 81 67 1.4048875860098973 66 2497 59 6056 62 2104
8888 0.49092660848779357 2.8013712074825321 3.7787779809832935 91 74 66 2.390367105517571 59 1227 45 1027 47 381 64 768
16873 3.529876918853192 2.9786972528314966 3.2749035431232412 152 138 125 0.35926591195190372 5 707 7 937 4 914 3 790 2 580
17534 2.049897748423271 3.5049392708031863 2.6915546182815455 134 109 87 0.54230672463634777 5 916 4 853 3 1305 1 382
2298 0.29126039010075094 3.3347094658523466 3.7871059004593093 117 86 58 0.63379996724343357 67 1359 71 1215 57 1070
2299 1.2062999657844846 3.6570946227728585 3.3135941067289649 159 129 101 0.54800440324586641 74 924 71 1399
8451 -0.061430514706567595 3.0678903374011508 4.0716499249735021 105 108 114 1.3788098314313304 42 7097 30 731
9906 0.41156477279480574 2.031027691999443 3.7061559176105918 26 57 86 0.98132792834502425 45 2324 51 3766 48 1746
2300 1.5241787400696927 3.5691131738494852 3.226962058945559 131 105 78 0.034863302796034029 67 1178 71 1411
2893 -2.4795444408563103 0.94480593694042025 6.2495229226106304 36 67 89 1.8873209163193989 67 3920 72 1272
2301 0.55013248568681772 3.6777414226189014 2.9979312819267414 131 105 70 1.7163693652960936 67 4491 68 1219
20056 3.4839364739939023 0.85672043271912823 8.4201129202173917 163 175 191 0.063449874626184968 10 1264 16 2018
19753 4.790464550602449 -0.47987979159572125 11.779193800123707 100 88 80 1.2396597230209541 10 2583 9 3538 12 2321
17355 3.270091437261502 2.6556950585641634 4.3754116430652061 151 134 126 0.61881721414459645 5 4149 7 4137 4 4318 2 4469
2302 0.64934192613526953 3.7416487556526121 3.0783924256252 157 132 94 2.4225481131070166 70 2333 71 1424 69 1162
14159 2.1833489994574453 3.0524220638894208 3.7254310163846238 147 105 80 1.0300246529266619 104 1206 103 2449 105 1190
17378 3.2699075700108202 2.531036634584984 4.5341920888492497 137 123 114 0.63156178721003464 5 4226 7 4793 4 1943 3 2207 2 2252 1 703
2303 1.4937880402625785 3.50835462616705 3.0511664235711318 154 128 95 0.13168946000712478 65 954 71 1426
2305 0.18438011993834424 3.3416336508937858 4.1768268285730317 133 105 81 0.58549925521756463 71 1525 35 3283 37 4688 62 2245
17792 1.0444682250488111 2.434753504875713 3.6944805975581292 122 139 147 0.55184768258594341 3 20 2 25 7 24
17937 4.0894785513796705 2.5182093015378415 4.3725236751818439 144 127 117 0.42512314883935842 4 873 5 398 7 883 2 660 3 739
2308 2.015740186846275 3.4873221212941337 3.6360024268595987 146 114 91 2.2859119823376357 74 1750 71 2031 67 1246
3255 1.6891256270744466 0.97751792258109382 1.7619223022869188 99 127 138 0.61763156575802969 65 3559 68 4561
2309 0.38642520743553749 3.6829556103791252 3.1696659856152052 159 124 92 1.2174655099350657 67 1750 70 2194 71 2088
2310 1.0093891775238544 3.5606068679858396 3.0182723839354 123 94 64 1.0769083591733 67 3542 71 2197
2315 1.4108375485441365 3.6598012474098023 3.0931521753748865 161 134 104 0.81062133873934505 70 4444 71 2330
2316 0.72294512998426197 3.697968937545177 2.861394734429731 111 83 46 0.75974863035295892 70 5574 71 2337 68 1266
3263 -0.22215272218097662 1.9459902491652705 3.9033719395278434 160 200 224 1.9687060136196635 71 6580 64 1604 65 4054 74 8322 68 1725 66 588 70 646 64 493 74 827 71 606 69 546 57 3030 59 3520 66 2394 74 8324 64 1607 49 825 48 570 51 3821 50 1019
17335 3.0703157402795025 2.7317276000312329 4.5033182342511777 138 121 105 1.1919488777740999 5 4214 7 4088 4 4282 6 4456
17924 4.4582515068309698 3.1057433480434251 2.6067876604285631 165 149 136 1.2638629183152978 4 544 7 574 2 617
2321 1.6268322694617534 3.4698479784560039 3.168022852390322 101 69 44 0.55358879961499297 65 3159 71 2497 68 2724
2323 0.80462860197939889 1.4678408361235313 3.6893734825125621 72 114 138 0.05381141552004709 67 958 71 2522
3714 -0.17414354674718327 0.8984449480821276 4.6031052160170258 174 210 226 1.2205277717588776 62 3442 59 3431
2324 1.4121548330462366 0.86563281242181911 0.88247620037577912 60 94 119 2.3908051375596253 64 1848 71 2537
3207 0.12325001103346493 3.250239386272876 4.4674535871600067 81 63 49 0.69403586602549272 69 3074 71 6912 68 3988
2329 -0.16913342946655197 0.73336873809444614 4.6854734681690129 142 175 191 1.4309207600502087 66 2285 74 3547 71 2683
2696 0.3639809430926686 0.72597588965041249 3.9623396923296701 0 0 0 3.204106133753208 71 1040 74 771
2330 0.17460942142531713 1.0558510202039524 2.1896736642596282 31 49 67 2.9046738777385634 74 8137 71 2696
2333 -0.57789925024071376 1.0161744209844685 4.5639960459046316 97 126 130 1.4236673034781246 67 704 71 2710 68 1479 72 423
2700 1.3552041828520878 1.14274226369357 1.1232789586769156 109 141 157 3.5676076477795302 70 6231 69 1559
3209 0.11244052571314714 3.1462464535158996 3.9050924101912061 134 113 92 0.91852058754314081 64 1075 68 3999
19702 3.353273342058503 0.87067109394965614 9.2082294820129249 164 187 205 1.2335780402082535 10 1606 9 2961 16 1108
17223 4.1149547521162599 2.5817107812451394 4.367489944361699 148 136 128 0.74938389907869551 5 1870 7 2376 4 1541
2337 0.53218381660842695 1.5578046064379936 3.6964683007784318 96 140 166 0.163097029815926 62 3491 64 2142
16444 14.123860281794887 -3.2906983701507775 6.3748071479169708 0 0 0 1.8029606754899312 85 960 87 1918 88 1868
17839 1.950305618986224 1.476931035404133 7.6065396636508025 199 208 225 0.40599207688697814 5 140 7 145 2 245 1 107
2339 0.30808749386240913 1.6280060171143416 3.7151820226337002 175 211 231 1.3599654489697812 66 4025 71 2747 68 1711 67 950 77 597
3666 0.98397608152649851 -1.38001424038417 5.9461084495668688 73 71 99 2.3523042151096574 70 4917 59 2656
18128 4.1279641805097746 3.2270480451929693 2.4352715993989458 68 52 44 0.14152423556770649 4 407 2 1564
17825 3.2134056534499638 2.4554265469168239 4.7524924994749789 170 152 144 0.55863282669624548 5 184 2 204 6 318 8 325 9 305 10 540
2341 -0.10088847990913649 1.9337656262472696 3.8396615450340712 54 102 139 0.73340763093889982 64 2212 71 2763 69 4490
2644 0.78452330367599532 1.6593630434194797 4.2703342793939871 221 254 255 0.73891928442281718 71 2152 68 601
2343 0.65447686124037052 1.8750088358505743 3.6311687761541878 175 222 252 0.66703720241034481 62 1343 71 2774
2344 0.27354631133687246 1.9202164828765753 3.6898905778040176 208 207 231 1.96786619006397 64 2220 66 2400 71 2777
17224 3.2182141139804439 2.9956106543831842 3.6043082772285682 154 140 131 1.7513993984591487 5 1890 7 2379 4 2199 3 1335 6 4163 7 4222
2346 0.30949111931184242 1.9576780667679463 3.7048892937192628 67 121 165 1.678254573956357 64 1639 71 2793 67 4011 57 3044
18249 4.0155733066519446 2.3764936243291883 4.6582468967647479 137 122 115 0.32851992430648369 5 1756 7 2254 2 2335 3 1282 4 2150
17656 3.3045602110541035 2.23665704339688 5.2402026171673599 175 166 169 1.2054923283932042 5 4349 4 5359 2 3279 7 3985 1 1522
2347 0.33423947922770358 1.9742288858025108 3.6432489351571355 67 120 164 2.1137476680579055 74 8415 71 2797
3674 1.7404148286291223 0.063393954429315641 2.3487396308294275 0 0 0 1.0231848613983856 66 3186 67 3047
5070 -14.868698308405881 -10.811729568823807 57.943638833269816 6 14 33 1.5489227266294112 57 445 59 459 61 426 62 413 64 312 65 389 66 477 74 262 60 377 67 468 71 226 58 409 70 362 69 256
2349 0.22574545883002201 2.0144820839540536 3.7465520030997417 197 215 195 0.34597064830754121 62 2017 64 2268 71 2802 66 4167
16955 4.3038975947379461 2.6415063033232449 4.0253553486217353 180 170 161 0.25200840172632921 5 1660 7 1256 4 1594 2 838
17834 0.65338154013671557 1.5252054233391357 3.6617080926798877 158 175 182 0.74904307342095655 3 562 2 236 4 243 1 225
2350 0.29729282978969163 2.023817477000784 3.7297666718955012 47 95 131 0.92556817714923634 64 2278 70 992 71 2808 68 3767
19654 0.19219644407326683 -0.82374002722284256 14.682082155474195 0 10 27 1.0917348715749189 10 982 9 2547 13 1083 12 3096
17956 2.7428726910492922 1.7898987346010415 5.9546544519493096 151 164 179 0.69710908454527731 3 4155 2 732 7 3169
17239 4.8582977445090911 2.7010423504575822 3.8906352784268692 167 157 145 0.16720818406247473 5 1608 7 2520
2353 -0.033088776695794873 2.5089840495673199 3.9352777994225834 202 235 251 2.3498467535729719 62 2048 71 2825 66 4218 57 3123 57 3125 69 649 64 1025 69 651 70 1753
2720 -0.723665374128171 3.4987227930407667 4.0112046138983333 134 110 84 1.2486249301276411 71 1541 69 1734
2355 0.61872918917717223 2.6729535564354032 3.6545182799243516 148 188 200 1.2466897553120861 71 2839 57 1705
3746 0.49268535050857348 1.9942250459831419 3.730923531809041 19 71 111 0.31968420413347032 64 2263 59 6041
2356 0.66664626897278556 2.6377890302261453 3.5474301599184677 151 190 205 1.6329306592233628 64 1043 71 2840
17841 1.6436585512000719 1.4983601333339267 7.8657678907619371 156 164 180 1.7166086030508088 4 3026 7 3675 2 247 3 2005
2357 0.68127981528836712 2.7271062172786213 3.8231423888956662 181 221 237 0.49052949434579268 71 2842 69 3565
16421 6.6704828724215499 0.17141518707649148 3.0172114440409077 39 55 78 0.66147139538471322 83 31 84 25 85 28
17236 4.54110338325341 2.5789282847224935 3.9850546595417642 147 137 127 0.077770068274962773 5 1946 7 2474
2358 0.7791998622323868 2.564707011424769 3.1680785874673161 170 184 196 2.2977192019631785 74 1451 71 2854
3233 1.2128990924327538 3.6647937702297706 5.950179497259251 148 153 166 0.28831612410091667 67 4135 68 4271
2359 0.79606958554852858 2.7205143692614882 3.6757760315403671 157 194 212 1.1491206583448768 64 1048 71 2857
18265 4.0081011519615952 2.4329532862087451 4.392970866590618 149 132 125 0.76900981924635525 4 1502 5 1024 7 1095 3 725 1 1572 6 801
17608 3.1496477850569806 2.7049311393079343 4.1374705965692993 148 135 124 1.092710736741501 5 1732 4 2111 3 2256 2 3505
2363 -0.39024803265392194 3.3240736813837519 4.5524348196379236 103 80 62 0.88903486498627016 66 2560 71 2899 74 1491
2364 0.23457173120121044 3.2203709539471186 4.4188796162845527 88 67 53 0.72015540092737274 62 2161 67 2400 71 2907
3247 0.61910745628337027 2.9981532807958531 3.7539349351131346 118 101 84 2.2170042966865857 62 3682 68 4500
17235 4.4254710381551838 2.627227926606436 4.0016626549464736 156 143 135 1.5952764815063141 5 1942 7 2466 4 3880 2 1439
17602 0.96888171008113733 2.3344021418810947 3.542383268813432 143 158 163 1.5831819485329681 5 562 4 2025 3 623
4063 -1.3592568475023703 3.3259684758268655 4.7664677679849214 126 108 86 0.10249953243911974 67 1411 72 1331
2365 1.745997803464558 3.1554401940821162 4.6143232388208784 39 28 22 0.20993145319593237 74 1939 71 2970
2732 0.41873928209674882 -0.20794343354911329 2.5676185782370444 22 36 47 2.6037177804158893 67 2919 69 2011
3241 1.4115042001890183 0.70901014538500817 0.75865194310065842 0 0 0 1.9450152482759342 71 5366 74 7263
2368 1.254626465992251 3.3207740652971256 3.9944106284470835 69 39 13 0.18219398527048825 70 3409 57 2609
2369 1.2422862888751691 3.2727384164509101 3.8685326842971004 142 112 86 2.2032679231128411 67 2566 71 3440 73 1150
2371 0.95983977002278997 3.377773797036923 3.7315096334970725 107 72 40 1.1084830216763286 67 2649 71 3707 68 1055 35 2967
3826 0.16485236760828886 1.9680812883623442 3.7577116551529746 52 73 114 0.40651861261498934 65 1799 61 1502 63 5209
2372 1.3985247555259115 3.3293085193427827 3.7812004589044039 73 43 7 1.2597362312048319 70 3628 71 3733 68 1705 66 2832 69 1375
3319 0.18360591260775261 3.2994552647675528 3.8492757104117361 144 117 96 1.3640659273750804 66 5044 68 4151
16470 0.043170116979109607 0.85706770782031183 6.0316484938458546 191 216 238 0.69861594723254106 85 466 82 198
17857 3.903447998249435 2.7980714335237695 3.5657347411548828 148 134 125 0.53565021194166884 5 700 2 343 4 352 7 380 1 325 3 364
2373 1.0086960518435109 3.3425456876077724 3.6092378564410637 141 106 74 0.10882200072512152 65 1256 71 3770
24021 6.0899487913849857 1.3080927356782424 5.3807404221360997 43 54 74 2.9435438029198981 18 196 24 93 29 59
18219 3.6404689383060393 2.2652553114655052 5.0598467809295933 139 128 126 0.46623018875237221 4 1911 5 2205 7 4033 2 2180 3 1159
16474 -0.53079788656495874 1.6188375220935676 4.9909631518092095 188 217 231 2.1472073973616013 85 2207 82 270
2377 1.1969791766279674 3.4187908270029945 3.5279426113547681 99 69 37 1.4521987909919842 67 4890 71 4125 35 3136
2378 1.0522904866208656 3.5523568378848207 3.6080434896341038 113 82 53 1.5908401858590533 67 5034 71 4256 69 3643
13509 0.98413865215340079 2.3958485792718505 3.7376084042230873 111 115 116 1.994531541140639 100 126 102 335 103 254 101 199 105 281 104 180
18409 4.0912905881185724 2.700115769327041 3.9408932378328489 156 142 133 0.47249183021621294 4 4998 7 2430 2 3583
17022 0.97074856550007838 2.0142811584723037 3.6611120882316497 145 162 169 1.9408234517787957 5 561 7 1806 3 3004 10 1155 12 2532 14 3265 15 3952 22 4245
2379 1.0883377695715057 3.5596179225369906 3.12002116587239 167 138 106 1.7809470698622114 67 5745 71 4827 35 3285
3834 0.16530091474544756 3.2480477286398304 4.2522273641843542 94 71 57 0.38449359831665675 62 1202 61 1727
2381 1.419802827472967 3.5202858594493009 3.1165965741617194 121 91 63 0.4246618817968551 70 4120 71 4899 68 2699
2382 1.7208734827287289 3.525579725144798 3.2369611908241538 98 68 42 2.0288315713888632 74 6392 71 4914 65 3175
3321 0.02795420089120217 3.5087391708491671 3.9870062440521252 118 97 73 0.79322319231762894 64 2502 68 4479
2383 1.4017711921088201 3.5289824440056869 3.0850075428512462 160 135 105 0.25239091593476853 70 4164 71 4927 68 2709
14078 0.55774811075273512 1.960274966411597 3.6613583926423479 141 150 147 1.7712453890357938 102 114 104 188 103 180 100 79
16455 16.952325819608031 -3.5132435126648032 1.44426877188201 33 36 51 0.97364949367155551 85 27 82 32
2384 0.14737733796697317 3.7465364273782411 2.8782679480200044 133 109 74 1.2226153014889156 70 2287 71 4956 69 886
2385 1.5306476698848586 3.54036827287961 3.0725450873881859 156 124 99 0.78768664853408576 70 4316 71 5013 68 4590
16556 5.3068211158134302 -2.2816142337917267 6.5272325960291679 144 166 177 3.5083012992648541 84 42 82 56
17213 4.2883605024885769 2.3698596535706709 4.557643985394475 173 160 152 1.5703802805329459 5 1828 7 2339 2 4279 7 4211
17887 -1.8565992457793938 1.171198339380503 9.8841011994194723 178 156 145 0.42274484179808075 4 1051 2 453 5 863 1 871
2387 1.0017397635958729 3.594854419496913 2.8751128734088329 122 94 57 1.2122498948043836 70 1385 71 5116 69 3997
3778 1.3477891911762481 0.55069694992495566 4.6630798935613358 207 227 234 1.4236733186432715 62 4977 59 3306 67 3853
18081 3.8516086233038478 2.5090365669482826 4.4925419494260863 138 125 117 0.56003371190750528 4 320 5 628 7 855 2 1342 3 324 1 296 6 512
17206 3.8837488401952487 2.5376140143850296 4.4077201723969059 180 167 158 0.46858012715131847 5 1806 7 2306 4 2168 3 2323 2 2403
17872 1.0686188958743312 0.24723350177780579 11.07326062314076 172 185 201 0.41286476487210438 5 2885 2 394
2388 1.6184581083271199 3.5436493348501199 3.0474983487301004 102 75 48 0.38593252835886738 70 2464 71 5118
3271 0.80587382710128408 1.9771772190316439 3.6360349108188204 17 50 73 1.5888357554358634 70 2788 62 2011 64 1000 62 823 74 3686 67 1425 71 2812 69 1639 68 4537 74 8444 69 2867 73 1008 77 799 37 1969 43 2890 6 4975
2389 0.8150824471740129 3.6828424456851181 2.9320796737345258 152 122 86 0.90989541084597247 70 2397 71 5124
16453 18.136091197217041 -1.5377051526622985 0.69864986539314555 111 115 101 0.4332838262797496 83 12 84 11 82 18
17396 0.29621128161336163 2.3464514498190261 3.5815601453198718 148 154 157 1.4345135849843669 5 1236 7 1798 4 4124
2390 1.6171855702798448 3.5378645886119853 3.0287710760997468 149 122 95 0.78470293451938178 70 4422 71 5137 68 2829
3265 0.27056532345421208 1.6276772847351269 3.7072568767211278 31 56 80 1.9114158913864618 66 4028 62 3323 64 2165 74 8291 71 6546 68 448 66 591 70 448 65 631 74 577 67 594 71 636 69 373 57 411 57 2979 73 1786 77 2769 51 1923 48 984
20280 0.023603819471966374 2.4949097542047909 3.9386263325465833 124 143 141 1.5187736557028191 11 230 12 186 13 277 14 352 21 363 23 359 8 128
17067 3.4379250445469167 2.4297123324146845 4.3512879951694243 190 175 168 0.71413263909008162 5 1698 7 1920 4 1373 3 1213 1 686
17882 2.5183926004002664 1.6332378950748796 7.0778847207242244 171 176 195 1.4448209304195951 5 526 7 3896 2 427 6 700
2398 -0.49728678443213031 3.2542319291181228 4.6559094821067175 96 79 61 0.46106038806852645 66 4361 71 5519 74 3778
3273 0.03734779225896704 1.6862339637365258 3.8097454467018945 52 86 113 1.445797862324905 66 1414 70 2692 64 946 65 1774 74 1372 71 6554 69 612 68 600 57 2983 59 1275 48 989 49 1992 51 697
2400 0.14669399432540606 3.0743314946841545 4.257470596728087 84 66 52 1.5052582471524527 66 2523 71 5540 62 4647
2403 1.2743230173483202 0.73562514427629466 0.95610766176323159 49 64 71 1.938664603394946 70 5068 71 5579
3730 -0.93708515715017737 3.3349653461373485 5.2911483412404738 166 172 184 1.7849192321856218 57 1289 59 3749
2404 0.23123602212530853 3.2515758138384112 4.3008152301388547 86 64 44 1.587244000452257 71 5597 61 1718 62 2188
16506 -1.971132668580778 3.7025061837195494 4.6507225574168967 173 152 123 0.41703861238455797 83 468 82 1262
2712 0.23822705273239678 2.0561220044640005 3.7455909350422845 141 159 135 1.6573471696078057 62 2036 69 1634 63 3804 49 2057
2410 1.4601601053978546 0.91005289703251846 0.81554063686560507 28 30 43 1.3723046619644714 64 1882 71 5804
2414 1.181208894765684 0.9198600020803801 0.91413593129413795 70 108 127 3.0500384856948064 74 1290 71 5898
2415 1.845142441125424 3.3137660697874574 4.0510951143906411 94 60 35 1.5078515214464048 67 5999 74 2234 71 5902
16487 -0.3140608012635191 1.1361628675373385 6.119910244493485 137 123 122 1.9433693599237789 85 618 82 394
2416 1.4350576211927104 1.0834166005266137 0.30179689324405035 36 50 60 0.73606398199119538 64 1877 71 5912
2422 1.4400840186911295 1.1118194656496558 0.30633143871604251 20 34 45 0.21510603791059277 64 1938 71 6020
3297 1.5598117971723404 3.5534949475814295 2.8552315339548775 160 139 112 0.55084936279947627 70 4596 68 2903
2425 -0.4542915196056318 0.61832347832628198 3.1166722102211524 22 36 45 0.36210107562985061 70 6256 71 6099
16489 0.8560627659366441 1.877824441539699 3.5747130369787352 64 50 40 0.059233559486981349 83 2296 82 421
17304 0.40896552559268268 1.5453222217043439 3.6982874716452216 111 126 133 0.55194301412331159 5 2465 7 3695 4 3998 3 1980
2426 1.0838165164183422 0.91795264149610412 1.5473508913355454 14 15 20 0.87255298437637019 64 2090 71 6110
2428 1.3952485599466125 1.1105360860106681 0.57677822267691869 47 58 73 3.9002676559381246 64 2072 71 6175
3311 0.16268250548827848 1.7623123770365563 3.7588324570315197 140 183 202 1.5136396629111726 65 4058 71 6573 66 4047 72 1290 73 1806
2429 1.4439979071499656 1.1565362505723695 0.3052597051983863 83 115 130 2.5159883488056831 64 2039 71 6177
16971 3.6123668119597303 3.0198715978716155 3.1550712315742406 152 138 127 0.65602339394013409 8 908 7 1304 4 1619 3 1387
17914 3.7796351332165816 2.7951113828086442 3.5162485224337052 176 162 153 1.2185263533716246 7 1258 2 560 6 1356
2430 0.54221025223726838 0.93776731598062879 1.6798746043358632 16 28 43 1.9996325285444847 70 5571 71 6180
2433 -0.014745461457228446 0.29814421010395914 6.0939865730459957 168 195 212 1.6257337238919016 74 3512 71 6216 65 1702 66 2269
18065 3.8367128036753004 2.3970955102168752 4.6812910940195804 152 138 129 0.31574178372438999 4 2803 5 2213 7 1950 2 1283 3 1250
17254 0.64179903474874822 0.04326891971047199 5.5240938941036299 151 132 118 2.1699376971516089 5 2328 7 2867
2436 1.5251331889609512 0.51468007111117586 5.6565629725579303 230 251 254 1.4203084358853988 71 6286 61 901
23866 24.767452075225197 2.0430506417532959 20.787375461419462 147 139 136 0.98645327062149157 22 229 18 228
16565 -1.846785541729091 3.5845371751189679 5.3113260902058359 168 139 111 0.90221577530056574 84 1247 82 604
2438 0.01093163878974905 0.71451929361251598 4.5236096770344885 191 221 231 0.65040666141503989 67 3881 70 5679 71 6301
2439 -0.208990642900518 0.68851768253548162 4.9291478725659408 135 167 182 1.4908849628987499 66 3805 71 6303
16569 15.732174932976323 -5.1674388702239984 6.987668761982877 110 129 144 2.345789991197285 86 729 82 808
17678 4.2471515599828127 2.8830379751491342 2.2843844355078402 95 73 50 1.2359481417200562 5 3323 4 3216
2442 -0.18777878337451512 0.73219288261901005 4.6803759418421578 193 228 245 1.6297941989281475 62 4992 67 1483 71 6317
2443 1.8779218149132593 0.71822939054746904 4.5535966994513251 41 26 39 0.94873320348428325 62 397 71 6322
17074 3.8838105947667003 2.3545703894882628 4.7778471064400119 180 169 163 0.62581823233417977 5 1706 7 1936 4 2118 3 1240 2 2279
17667 0.88869970065971582 0.96134949116930113 6.137143907038169 204 233 247 1.4194741955166386 5 898 4 212 3 220 1 564
2447 -0.098895473396628672 0.85432728461285101 4.619149584541864 203 231 245 0.94577189655740324 67 3903 71 6363
3100 1.3929414166470242 3.5071284566633292 3.1118342608038354 171 145 122 0.031603272373203997 70 1345 68 2679
18052 3.2316554146278995 2.4190925046759633 4.6238162577257738 172 159 149 1.7367316563450164 4 4251 5 2619 2 1235 1 1534
17685 -0.23767398025901196 0.51339756778512768 5.5265463490359785 111 122 118 1.1586267487209971 5 51 7 85 3 115 1 179
3174 -0.56493987427779779 0.88022133221131094 4.9493791389294861 187 220 235 0.80163800990981282 68 3621 66 3873
3683 0.89367503949915872 0.71898763833078638 1.6399213741834169 43 35 56 0.30801562907751523 70 1276 59 2865
2451 -0.10811537275799313 0.95313654278377447 4.2122206489042977 183 212 228 2.3177952045522257 66 3881 71 6388 68 3625
2456 -0.34002649233552629 1.0739521237587297 4.2821789210532026 161 192 208 1.8767190009632084 71 6405 59 1366 64 3289
2665 0.44940811670189929 3.1215293677750968 3.8162701281313152 131 109 88 1.3039273047901507 62 2224 69 990
3182 0.17429242944014633 1.958810304628376 3.7396375772377497 73 123 163 1.5065310147155386 62 2749 64 2231 68 3730 64 2233 66 4108 57 1668 63 5197
2458 -0.35815059803241828 1.0979949345486011 4.2568422924340963 150 183 200 1.603083945761858 67 595 71 6407 68 3637
2460 -0.51873250910921609 1.2361052190410515 4.2730090824329423 144 177 192 1.8016228077857086 67 790 69 2686 57 1639 66 3942 71 6441
2462 -0.26687169311918785 1.3114503386562912 3.3232922594449592 36 52 68 1.0377648375867514 67 3930 71 6453
2463 0.59043456882262746 1.3014386021119688 1.7828231997595902 31 48 59 2.469875860759017 70 2614 71 6458
3180 2.0396966461909511 1.3700510407235733 2.4355617271353349 208 251 255 1.7058355572889043 65 693 68 3673
20422 2.5193180771732719 3.1547708709507707 3.7336221773647238 137 119 99 1.3898505643394667 16 2741 12 1720
16471 10.936618731812805 -2.3373211183362024 6.996796165707674 33 49 59 1.7501699921376754 83 337 84 193 82 239
17700 -0.78315228390676417 1.0622598807754042 4.9171707299044014 103 112 108 1.1299330152678069 4 226 5 1434 3 513
2464 -0.67243166251883213 1.3395268796792126 4.3744449305397817 209 242 255 1.0277398864633385 74 8205 71 6459 57 1156
18004 5.1044098033434349 12.00693700203926 6.9566733977357016 36 32 20 1.1574921544604928 3 1612 2 946 4 1826 1 919
17351 3.2291128559428874 2.6305877645922351 4.3335942799034921 171 154 146 1.6541663828690081 5 4156 7 4129 9 4497 2 2310 10 1830 6 2220 14 3223
17701 -0.92117742494410026 2.9814140137461442 4.8484446810540618 233 239 237 1.1337052347100465 4 1195 5 1279 3 566 7 991 1 587
2465 -0.20368324624836937 1.3351401659504849 2.9010989977878561 18 34 46 2.8730296281086867 70 2616 71 6461
2768 2.0873217076265331 2.8761790619350656 4.1237674428406406 84 70 61 1.5768061538422526 74 8696 69 2337
18097 4.1181715103091916 2.608269549754068 4.1818360327813684 172 159 151 0.83029767298018931 4 4442 5 1893 7 4227 2 1405
17158 3.1606256101897872 2.6472375742363692 4.3313242656193074 147 129 115 1.6796281427552253 5 4173 7 2135 3 3259 2 3474 3 3266 6 2217
2613 0.6687095496602834 1.9180465043831283 3.6497572976691264 47 120 163 0.92827375695607728 62 830 69 323 72 451 76 991 40 1225
3287 1.341293170487122 3.5467978483769893 3.0325402259424785 132 111 86 1.484571816744183 70 4237 68 1301 59 4683
2473 0.57605933184845559 1.5419591245646687 3.6328211710136928 195 231 248 0.4135194030912504 74 8259 71 6519 64 1344
3134 0.47150613576608008 0.0016373944658503677 3.4471220013179513 72 107 126 3.7101273893063711 64 1863 68 3371
16473 -0.41648661712956503 1.2960270698894998 5.7523595322425063 215 246 255 2.8217987199271954 84 328 82 268
17352 3.718156000790354 2.3902039663078471 4.6854688550050607 134 126 115 0.72939304347268752 5 3226 7 4132 4 1382 3 1223 2 2273 1 682
17710 1.2640871951855981 0.013799338180619599 4.5439618802260417 145 143 144 1.1516517065262524 5 875 7 137 3 962
2474 0.91266232082753995 1.5837034990533896 4.5494676909213707 185 222 238 1.4182405774483995 66 6350 67 3961 71 6530
3643 1.1859729780812911 1.1645188939361135 1.1309523463346254 90 92 104 1.7514531213001558 70 5741 59 2341
18377 3.8736302406218526 2.3602857623486599 4.8216571678649363 147 137 128 0.3364722409331446 7 1929 2 3438 3 1234
16990 5.0187143801065597 2.9647308164798325 2.6159581926381192 164 149 142 1.2268587475935522 5 1517 7 1513 4 1803
2475 -0.023814352066400712 1.6417375612164056 3.8899477592570233 133 171 194 0.19634882015979371 71 6540 77 2760
18370 4.0130442191431754 3.2114960165461426 2.3352601649111184 26 23 14 1.0790680535073365 4 3167 2 3408
16467 10.485906166512502 1.9665797686866153 2.2328798616392325 120 101 84 1.1855430550552004 83 24 82 119
2476 -0.22777312121003249 1.6884788762474234 3.9527705037416991 51 92 114 0.25389493215291314 64 2170 71 6547
2621 1.4229566520827384 1.3738584414587693 4.1034621369239144 170 213 230 2.7921334691452371 70 953 69 372
3295 1.4157493749530092 3.5581145161280099 2.8908935164708005 113 88 66 0.28909965722196668 70 4498 68 2811
2477 -0.13326012647582697 1.6653424959314584 3.7355340519740858 69 101 125 2.4016788119649166 62 3287 74 8295 57 2982
17083 3.5721543840775247 2.5810223742104372 4.4779702163787594 180 163 155 0.46996026146110897 5 1099 7 1962 4 1409 3 1252 2 1311
2478 0.71745765166288644 1.6801724034808727 4.3838793950006156 176 212 226 0.6513238186756003 70 1685 71 6557
3289 1.4859997194026111 3.5388446733650585 3.0200351071565383 128 103 77 0.651487200231329 70 1301 68 1321
20429 1.3259045338281619 3.7137744704473499 3.3387796704924426 126 96 68 1.1313656203070164 8 1787 14 2164
16978 3.9761529385176417 2.9522407220339963 3.0874436441810884 145 132 123 0.5879277697240568 5 1603 7 1362 3 423 2 887
17699 -0.36768397623488069 0.65612722005705437 4.7583231309257386 98 104 100 0.7163292753488687 5 3390 3 505 1 211
3132 -0.19477691224214533 -0.36571476844653245 4.073772182828276 21 46 66 1.4845703302648783 67 3291 68 3342
2480 -0.20820728591911566 1.9134204928753484 3.8936705066373229 38 87 118 0.56842240291318247 62 1346 64 2189 71 6575 68 3687 57 1660
2561 0.73761718829984091 3.4374481902731326 3.6581816074990785 154 120 92 0.52201460658417997 67 4669 71 3811
17717 -0.099370364786028398 1.9303483171088571 3.8375744823100093 160 176 192 0.66198941408800793 4 1171 5 493 7 695 3 1020 1 651
2481 -0.19248986665125004 1.9290273258446538 3.8849048367521801 74 126 160 2.196423404392764 65 4055 71 6577 66 5076 68 3689 69 2766 64 2209
18204 2.2710106670651489 1.8720654964054619 6.9944570752026198 160 169 186 1.2189064120859843 7 1563 2 2111 3 3005
17039 3.1871336564525201 2.4966342190939406 4.7750974461726097 154 131 117 0.93284999458237594 5 2206 7 1845 4 1305 2 2198 1 2620 7 4918
2482 0.30695957551164055 1.8776772083322995 3.6746973205065308 171 216 245 0.40713792687658434 64 815 71 6586
2483 0.44166690883638299 1.8879644481969031 3.6712272952557923 171 219 245 1.1033099695932389 64 2207 71 6593
2484 0.15277412047117556 1.9228163719572686 3.7485038424699586 105 71 85 0.59534067164143267 64 2218 66 2395 71 6594 68 3704 57 1257
2565 1.5726257570621296 1.0000811801253269 0.55268131018936473 19 4 12 0.51690475976738814 70 1522 71 5842
2488 0.91997229258248503 1.8492932994450206 3.6312139392273273 47 109 148 0.89825460602873508 66 2788 74 8338 71 6604 68 3751 64 948
18203 2.5228272342014062 1.6762592583058253 7.0110408976500436 169 177 194 0.94003908735235253 7 3900 2 2106 6 2089
16522 7.936341126936175 -0.98303975783691455 5.5985457161654359 16 26 35 0.30727933049497197 86 820 82 1701 89 1755
2489 0.31747455627821347 1.926290818441454 3.7013064480235438 37 91 136 0.74378758390884914 66 2402 71 6611 68 3731
2490 -0.25652006694882135 2.0030151167825991 3.9236960413802731 171 206 226 1.8198854605546582 62 1997 70 1702 71 6613 69 682 57 1672
17070 3.8960112101839148 2.3338735803706392 4.8434546398511715 182 171 169 0.49460764385779121 5 589 7 1926 3 1230 4 1393 2 755
2491 -0.26502937270307952 2.0160710383886347 3.8940586200813545 190 225 244 2.101266392105686 62 2536 66 4125 71 6616 69 2788 38 1395
2573 1.0639846513883073 2.8019516173619725 3.9068252950284008 191 225 237 0.047020672392648039 74 8576 71 6839
2494 0.18337809226556984 1.9632613157559233 3.7253006146946626 48 97 140 1.0757403079458974 64 1638 71 6636 57 3051 65 4033 59 3528
2495 0.10671552674165649 1.9884426787956808 3.8135431323300786 224 219 232 0.19218956869136869 74 8382 71 6644
3084 2.0054778993031093 2.6093890844497287 3.3050993513661706 0 0 0 2.0756608805010801 62 2082 66 4323
2496 -0.10158949715925654 2.0230584482354765 3.848355913582175 165 211 234 1.1616412439437291 62 1267 71 6648 68 3733
3878 2.1381704783482922 0.11240411477567316 6.250654014986079 53 65 81 1.329013725498954 74 7944 61 3328
18164 1.2689200243811134 -0.43933952346494459 13.29021259102468 73 64 75 1.0507226303913193 8 2546 2 1742 13 1558
17733 3.6033034795329133 2.8808790000465718 3.5025113089709059 151 138 129 0.72382490361490426 5 1659 3 1368 6 1355
2497 -0.2226051987550168 2.0481636500304359 3.913176147696146 142 179 203 0.33416707163949511 62 4883 64 2266 66 4158 71 6651 57 3083
18348 3.3596988428116412 2.2795449116704631 5.25779107468201 167 157 155 1.6382954161604688 5 4345 7 3987 2 3289
17119 3.2944233368672196 2.4896651541003965 4.7393127435018334 182 167 160 0.95813737505366736 5 1171 7 2046 3 2187 2 2218 1 710
2498 0.20101063863841279 1.9965337243852419 3.7670662366507033 49 78 87 1.6211228250796115 64 2257 66 4144 71 6656
2500 0.22490115852841039 2.0012194449981409 3.733914725657189 148 164 141 0.83150929855932687 62 4890 71 6666 57 3840 59 6042 45 2308
2501 0.27873451320573278 2.0173082934097435 3.769812630009123 41 89 129 0.66101528185466019 66 4171 71 6674
13386 0.53965548705301347 -7.6766122226067326 25.871531331043787 158 183 205 0.77439945965576584 92 708 93 533 99 397
8213 1.2938573690870088 3.4702054140797931 3.7855198272012611 123 92 64 1.5752013484489849 68 2337 39 793
9092 -7.9841895040523072 -11.179359334485934 56.193937390383347 20 89 146 1.470780751917002 63 875 44 454 41 526 43 663
2502 0.10481644824273416 2.0483181190471353 3.7881674204357134 188 218 220 0.6749186648874792 62 2033 64 2281 71 6677
17974 3.6863667897461321 2.7365280620163768 3.8775051146656945 142 130 118 0.84806968909857505 4 1544 5 2253 2 818 1 1578
2503 0.29601615763754946 2.0324884963002434 3.7131954171255259 174 216 240 1.0290871933646226 64 3364 67 4032 71 6684
3156 -2.5324603655582454 0.076988325985987899 6.094179851828506 108 136 148 1.5912105369608316 69 2492 68 3527
3877 0.48799391718748242 1.0305631151294599 1.862976929257965 5 19 30 1.9428330243564202 71 6308 61 3325
17322 3.3322249452161992 2.3836113153335026 4.9359423259099913 141 130 125 0.41221528432633997 5 4307 7 4015 4 1875 3 3190 2 3340 8 5672
17467 2.8221611148841448 2.7778554399510922 4.2583600267721469 0 0 0 2.025578750458529 104 4702 105 1606 101 2993
2504 0.13518735971741541 2.0659529317414775 3.7729768375052548 191 219 207 1.1917738999251728 62 2038 66 2455 71 6688 68 1754 69 1633
19000 4.0048661140773145 -0.80744117837320528 12.456447574035154 54 58 58 0.96239771797761353 8 198 10 175 9 180 16 143 11 179
18347 3.4087903150534067 2.2066892667484383 5.42595688977128 149 147 148 0.70597421187107234 4 4203 7 3984 2 3272 6 4968
16602 0.9046769572276786 1.9097963420639168 3.6269195517201109 116 138 151 1.1255433256898615 8 24 5 12 7 17 4 15 3 16 1 14 6 23 10 24 9 20 16 22 14 34 15 41 17 34 22 44 21 61 23 50
2505 0.45383254333838813 2.0164932643040308 3.693539027926573 176 222 249 1.858171118586972 62 2022 71 6689 69 2854 38 1143 61 1508 43 1539 98 2036
3166 -4.6224826937421524 0.17000402741707324 8.5720534135036708 44 71 82 2.2242115359018153 70 5642 73 895
2506 0.46955373449883842 2.0213218316986477 3.6979471801541295 164 213 242 1.3906031952660722 64 1667 71 6694 69 1009 68 3783 57 3086 8 3155 14 4471 12 1432 15 3874
3675 0.71386126962749052 -0.82433909835962083 5.1225352691850459 52 75 102 0.32119260029677416 66 3257 59 2745
2510 0.70025673928185328 2.4572177942847366 3.7218012124111541 194 229 243 2.0989855686028314 65 3915 71 6735 57 3124
2511 -0.035212302364516598 2.7942565662030807 4.0960017988795503 167 209 225 1.5272037927704443 71 6739 35 2854 34 1156
3164 1.0175523445055568 0.23365180281256825 5.716365482432721 41 54 71 1.3219939237881091 70 5563 68 3568
17957 -0.89718316209910032 3.4675676554522061 4.8928671376559336 127 113 108 0.66474750378140035 4 706 7 3123 2 734 3 603
16583 -1.7601268179113876 3.7859432612602766 5.0192944550071967 81 53 31 2.2124975305272399 84 3077 82 2896
17748 2.6765895594692539 3.0295365600190891 3.4536574653902603 138 121 101 0.68041007812494236 4 2142 5 1018 3 2297
3894 0.76769297507059608 1.9914859682439245 3.7387962322093173 0 0 0 0.059448381792600993 59 3533 67 4031
2512 -0.97493309138109019 3.2578025079400783 4.897514221940372 125 111 98 0.88228748399093926 65 3331 71 6747 59 1505
2513 0.46383812982392725 2.7371551225151718 3.8405420921288678 194 231 247 0.17671585104055515 71 6748 57 3161
17421 1.5586073879163627 0.50438838296579369 5.0875952510262241 0 0 0 1.7124751151424316 103 1674 105 3805
2514 0.0064675355106893076 2.8439764573030621 3.9197998503992704 64 64 72 0.92202714125329832 71 6751 57 3222
17329 3.4456292910858122 2.4132907062152089 4.7731016866189977 135 122 115 0.45219716873379534 8 5745 7 4053 9 4382
17926 4.0222317190977703 3.2928180342927469 2.2605634164748878 33 29 20 0.57225582908448924 7 4449 2 625 3 3614
3893 0.94466128497799506 1.9073637625823472 3.6108677648731025 134 179 218 1.0129318516086701 71 6662 61 3544 73 2639
2519 0.50179746464071573 2.7937169311069114 3.7544169643419889 112 95 85 1.0815605055371538 62 4757 68 4526
3236 1.6424303131958842 3.2428460311670717 4.9282390825967335 47 46 50 1.8166651640285012 69 1770 68 4284
2521 -0.042544546265652121 3.2430661359758601 4.5948988682066512 81 65 49 0.14806280843296976 64 2396 71 6861
2526 1.153798334671635 2.808100386712344 3.6518136590650356 100 90 88 0.78882266772309606 64 2374 59 3710
17090 3.5905950006575384 2.2327518220752114 5.3111595916700862 177 165 167 0.81658985004230533 5 2576 7 1990 6 873
17747 3.0511723702025533 2.8348679002457358 3.8742719075918126 139 123 110 0.63576346329970901 4 2136 5 1792 7 2259 3 2292 2 2425
2527 0.10182454386433894 3.2524114918018179 4.4548273176982542 114 92 77 0.64693587598100166 62 2168 71 6920 61 1301
8247 -4.5982379482633364 2.4126363696055 35.602486632895875 101 116 113 2.1915983042010123 32 1706 39 1338
2528 0.83254664592791761 3.1421581168966917 4.399330178266033 102 88 75 0.99026944388883498 62 4603 71 6935
2529 1.4840985134311189 2.7828503220260492 3.6243834983245193 151 161 169 1.3330593626270741 66 930 71 6955
3190 0.63353624841361611 1.9865011689374685 3.6517135885518863 33 91 137 1.261802282326755 74 8445 68 3784
17151 2.9086469302117717 2.9047338100294438 4.3636888677558634 170 148 127 0.52053192694033312 5 1692 7 2127 1 1556
2530 0.41626314023010558 3.2024765509262365 4.2587820226151383 94 72 58 0.32388305255472188 62 3696 71 6966
2531 0.35273136703933095 3.2432082649733487 4.3158267368387104 112 89 71 1.2840529367040734 71 6976 61 4242 62 3718
2532 1.7581894277943961 2.5983025164200666 3.1560248605116277 63 55 54 2.512598254454371 67 2416 71 7010
2677 1.5214486555629863 3.5348593557632442 3.0402483413515311 171 143 119 0.74510497551843979 71 2276 69 1261 67 4537 68 2779
2533 1.9886905525007574 3.0910026291371233 4.5996455310481421 78 64 62 0.30815451214901557 70 3091 71 7016
16624 3.2786955282315455 2.6691533434693597 4.1889343511088919 179 169 157 1.155791385024324 8 551 5 615 7 831 4 811 3 313 2 327 6 797
17217 4.2390585615288368 2.4318890081647853 4.4840725243888091 166 156 147 0.1174796210600989 5 1843 7 2354 2 2426
3188 0.70793398846005362 1.9598148437204415 3.6777571498982731 163 228 255 0.023906134512791118 70 1733 68 3775
2540 0.89370158320576876 3.430592710057327 3.8120169175941521 134 99 71 0.71524507376324609 66 5063 71 7319
2685 0.53705072107048224 0.56635989100313178 2.5244061154538349 17 45 56 3.0512222347176277 67 3638 68 3484
2543 -0.4051481190852228 0.54841748990882666 2.9460263300351817 56 85 97 0.042306600733207578 70 1559 71 7335
16615 0.7104648472511077 2.5161074765362237 3.748137691046121 140 154 154 1.5214985996310588 8 337 5 265 7 314 4 265 3 247 1 124 10 250 16 306 11 227 12 188 14 254
17780 4.8087655748685725 6.8047367160327203 3.782392652553443 68 64 54 0.36796174006142013 5 2161 3 3884
2544 1.4362286613672557 0.56348217525916866 2.546739370103893 8 35 60 0.3499394179689061 62 2945 71 7340
2625 0.14690465873110428 2.0649607954592213 3.7890744784693839 158 168 116 1.868995160673715 69 427 72 455 77 2835 37 403 44 582 38 545 43 473 7 1757
2545 1.7382675892489754 3.469541990092643 3.1406617767590639 159 129 103 1.3338091107668015 67 5810 71 7494 37 1164
2546 0.23712437878172576 2.0219137323842169 3.7217644984086067 186 199 190 1.3614073721465099 66 2448 62 4876 71 6676 69 1628 69 2838 68 621 60 7300 64 2272
19495 3.3503566966720197 0.7352704168487656 9.1478416923376944 184 207 223 0.36104473309555934 10 821 9 1038 16 739
18113 2.432485320261156 3.4870710847185395 2.4420449376141882 85 72 59 1.5173323598747379 4 933 7 379 2 1476
17238 4.71678207030505 2.6698873877335618 3.7706029411999018 145 132 124 1.0319869702042166 5 1613 7 2511 2 3637
2629 1.5315250790068862 3.4874082779134472 2.9980929635139848 161 133 109 0.82648523572980137 67 700 69 479
2549 0.71511535620932087 3.3916001847445867 3.5567375976728814 70 52 37 2.2355234777483082 67 2691 71 1801 70 3569 65 992
2550 0.75117599334911167 1.4216134461559524 3.6936693724662728 66 88 103 1.3845425288901965 66 1435 64 922 74 1357 71 1060 70 2637 62 1376 70 829
17242 3.8722312016800853 3.0541570805060272 2.741428992559853 147 134 125 1.1448989356475208 5 1588 7 2542 2 895
17451 0.027059047755444796 3.4967833526689889 4.3892222752186267 0 0 0 0.27750482726197756 101 1871 103 5368
2552 0.97884958361194463 0.20187706156063279 5.7700563334709578 65 62 88 1.161757502901916 64 436 71 233
2633 0.65693002167472869 2.4907287264126561 3.7621066095428781 166 203 221 1.792565080357118 64 1028 69 559 66 4226
17790 0.8245864257456017 1.5766843692971315 3.636006432470368 150 169 176 1.6271147939377302 3 19 8 22 4 26 7 23 1 19 10 32 16 35 11 39 12 33 13 38 22 50
2554 1.945346946598848 2.8784643457063011 4.3054045714590599 169 202 215 1.3795137439311214 70 633 71 584
2555 0.14956341003128212 3.7830553330209584 3.2334554948543683 165 139 102 0.028297963987033221 65 877 71 700
8195 -5.0517899335337626 3.0842429519953813 38.844509868599459 94 103 98 2.2789344782338592 32 321 39 491
2637 1.5145384354025953 3.290671059165867 4.0365711548295433 127 100 79 0.39272034924323196 71 867 69 596
20312 0.4731406144949134 3.7859088329279307 3.2874931139377623 122 95 68 0.20685257467162399 10 159 11 457
19497 3.5446931800029646 0.63529399031275791 9.0983015876035811 210 234 249 0.60933415616155062 10 461 9 1049 16 733
17099 3.2193344256083694 2.4735872936623466 4.8417905294804431 169 152 140 1.3128503713218334 5 2603 7 2013 3 3194 2 3354
2558 1.9522249147928887 2.9924539256240514 4.6703626369509497 138 174 188 0.78858551989108028 62 803 71 1148
17122 3.2046394718285094 2.4425990582962775 4.4623761157423321 148 135 127 1.4691649138503948 5 2634 7 2054 4 1324 3 1162 2 2377 1 2479
17779 -0.88518424088744785 0.84998028583217222 6.7074419690980207 94 104 103 1.1588600384236902 5 18 3 932
2559 1.5844471124892732 4.3029148527045917 7.7610154777154712 37 36 41 0.66081476103776648 74 856 71 1171
18048 3.2878556273804178 2.1183998871991889 5.6530206202024882 148 146 149 0.59400103430641737 4 2008 2 1207 3 2141
17681 -1.1003249705878912 1.5908427760772759 4.9672977188588163 177 190 195 0.70731749657278431 5 1414 3 39 1 52
4023 0.23919711447417169 2.0292225087681395 3.7439093453680292 131 154 128 0.47575196566995531 64 793 72 537 77 777
17205 3.6500563283726937 2.5795790324773256 4.2371171953228748 184 171 162 0.92039198735915695 5 4043 8 1992 7 2292 4 1472 3 1289 2 2404
4017 -0.28884147741347582 1.9530503142648432 4.0265788207042572 167 220 249 0.90862058337315343 68 277 72 438
2567 1.5807662624241106 0.60994013280622283 4.8855829291726121 131 152 157 0.77421190168419018 71 6285 69 1554
2571 -0.42148022244308281 0.79524486499481084 4.8973706170295381 141 175 186 1.8157145226874736 74 1338 71 6352
3514 -0.56319485080069265 0.88902553681540453 4.4683747827343732 28 48 73 2.1986118202055849 62 206 57 147
2572 -0.029759218365441684 2.7119551616251925 3.4190971403020853 119 106 97 1.4461267957802206 65 3335 71 6754
4025 -0.15626890259658813 3.9055628176247654 3.330367197882746 160 138 115 1.380342607123801 68 2286 72 567
2574 0.30785724621414007 0.73546764843559087 4.0131590942368351 148 176 187 0.67394195384214572 71 7308 59 3378
3975 -0.56900066196147292 2.9231400090558526 4.3820255283304039 183 221 240 1.844944417540429 68 18 74 24 72 20
2585 0.7983383804249421 1.613647951230671 4.2307851414856881 220 255 255 0.79984757119268679 70 39 69 41 68 40 72 33
17593 3.3359593757175614 2.1481764827800354 5.4050542905000434 148 146 151 0.46896698259295155 4 1885 3 3921 2 2128 5 4363 1 2504
2587 0.87069693404227289 1.6230721208768983 4.6150643535607001 208 245 254 1.4393432900235195 70 57 69 45
3466 0.67477126653196351 1.8732627493806691 3.664483300205589 39 83 120 1.3481824738288681 67 2332 57 2997 72 1307 77 617
17155 3.1689505981207944 2.642481726065101 4.3470641775290604 178 161 148 0.77261587163597867 5 2685 7 2131 4 1359 2 3470 3 3260 6 2215
17586 3.2980066642309902 3.4017006134684076 2.4512497743917487 28 15 8 1.7756890770392324 5 3850 4 1668 3 3456 2 59 1 450
3983 -0.68637603880693188 1.0841697642609085 4.5818796175602881 55 83 94 0.79942692782779101 67 237 74 243 72 130
2588 -0.034718128510818298 -0.80189179362758745 9.1928089621895221 17 22 37 1.3583205274331436 71 55 69 48
3977 -0.43159758926492742 2.0231596481128786 4.0633985666393722 145 193 215 1.9465657392168607 68 43 72 75 73 95
2590 1.8175809101146909 0.85092043944085105 1.2466527760370192 37 63 83 1.0484478016644205 70 5365 69 87
2606 -0.64635364197947942 1.8179302214702158 3.5850114989529147 45 71 81 2.5431640811397926 67 56 69 212
3272 -0.57210554550287018 1.2807845546671766 4.3102268604457938 168 204 218 2.0609382456843637 71 2717 69 2690 70 2615 71 2719
2611 0.70697234913607943 1.4536874067206838 3.6985903736720234 196 234 247 0.84993213297090908 74 1059 77 300
3490 1.5485330563166875 1.0900833246569213 1.7863549109471211 50 88 133 0.14656395978585263 62 4987 57 3556
16468 10.868150746725933 1.8227134131649685 2.0221559908466347 105 106 92 0.14614579495107541 83 166 84 108 82 165
17189 3.1100435453176587 2.7166073519178955 3.9295523023281307 174 157 141 1.2213605839004575 5 1766 7 2231 3 3287
17863 3.1404404357419899 3.3254059837109748 2.3989040032681408 39 26 13 1.686652892116524 4 470 2 360 3 380 1 335
4001 0.034619949510563013 2.5302834609190192 3.9731839602961316 186 230 245 1.4280179306514669 68 34 72 284 77 193
3280 -1.1602514580284085 3.0987080727810548 4.9464278114928568 147 190 206 0.051550497911904532 71 16 68 500
18376 3.538157663960634 2.5148592777257304 4.7605546405232646 151 141 132 0.49643965832727799 3 1903 4 4311 7 4110 2 3432
17497 3.2915310998957312 2.9817209592283631 3.5154732524929284 174 160 147 1.5466944270745244 5 348 4 337 3 345 2 548 9 533 8 1837
2619 0.86551150066113969 1.5753839992937304 4.9271428732090516 204 241 255 2.4053786127493941 70 2677 69 370
4009 1.2368549147277494 2.736458792276756 3.717533197723232 189 229 245 2.3716501357832409 68 352 72 360 73 278
3288 1.2853176680276053 3.5951580065296915 2.9523360037485564 166 143 118 0.15442054408172987 71 2319 68 1316
2628 1.4138120723026264 3.5338108329867772 3.1563847488391596 162 140 117 0.41343364521627035 69 463 71 712 33 378
24259 6.1440087865190227 2.1126166705785332 3.8224945291135675 9 6 7 1.4716084187490377 18 1020 25 2198 24 914
16417 -2.1791796852463565 3.4958105011621687 5.219945946389406 117 88 70 0.58484502781245418 83 1652 82 805
17232 4.1726146486401996 2.5864206289467715 4.0409798968051041 154 140 131 0.68874401556792719 5 4466 7 2416 2 1419
2631 0.56959576243415178 0.93424136821645409 1.8549812219466184 63 94 114 0.5630025278582873 70 6246 69 534
2634 -0.376277193235378 3.364186522357643 4.4378993013393409 134 112 91 0.95950344629250883 70 810 69 578 77 2909
17641 5.0953658984392263 2.7710842545462695 2.3536446788473269 164 153 147 1.8874771175435914 5 1513 7 4653 4 4272 1 1227 3 479
